# This PCD file was generated using the MATLAB® pcwrite function
# from Computer Vision Toolbox®.
# .PCD v.7 - Point Cloud Data file format
VERSION .7
FIELDS x y z
SIZE 8 8 8
TYPE F F F
COUNT 1 1 1
WIDTH 871
HEIGHT 1
VIEWPOINT 0 0 0 1 0 0 0
POINTS 871
DATA ascii
5.738723056691186 6.002353704375088 4.102218692616874
4.097931623642577 4.878469299755313 5.343628904560309
2.565971004755518 3.453006983075994 5.312313092936007
0.723468973198420 1.891400274491287 5.431082843774649
5.621845661425283 2.863147700765364 0.976717597974917
4.887773862421723 3.655640303863513 2.155585771184739
4.223090533532886 3.378202087041942 3.150874984128294
3.161509926050809 2.581877240067260 3.423731976918566
1.974797030674146 1.328607503241831 3.576049291896767
0.976438204941658 0.337572744378925 3.594317604502195
6.857287775443073 5.360659137312529 1.900202024509996
6.082046437365950 5.908397780686465 3.815392081832568
4.473364856936218 5.153101293814046 4.987867183733882
2.833811961647323 3.735662637744955 5.300178152825424
1.247145689305153 2.304278183056040 5.595608692929968
5.635311818886752 3.095512199494008 0.639354315806266
5.057314113200902 3.234521961409244 2.013987900532531
4.551432401060836 3.586845186877102 2.966973564984970
2.965871423776576 2.921513439100974 3.649783761608666
2.017800414109390 1.757624516698164 3.700995053644516
1.171126772253046 0.541029975509025 3.634786206594653
7.011479319593604 5.156547107380438 1.642075837717138
6.292278410909628 5.982465296522870 3.661874583859530
4.702283703741145 5.622193676612708 5.079021204254713
3.032560929463520 3.881126523244102 5.377807690144215
1.301233705293872 2.542963302239296 5.375317344753518
5.731507283811604 2.774042125021107 0.295569282266344
5.444122160982037 3.447960688006577 1.612792574653066
4.700006416121654 3.653791409782915 3.122709221922506
3.403621458942540 3.092348358089027 3.597299025972382
2.324768651735512 1.698703150154995 3.684995722300392
1.191957875640960 0.956531570777376 3.693107527771333
7.308536482309567 5.044421850091284 1.011000327873046
6.652528997681285 5.870140902890160 3.108199084393108
5.141703995256558 5.886223170773532 4.755748379790380
3.692518925117184 4.342346779588474 5.285805831308917
1.919249890893576 2.588799646469184 5.373317859568335
0.293737915578417 1.302220023351093 5.471284341093813
5.453215851605124 3.244301513036982 1.218290640303454
4.898109384808174 3.743261203607873 2.626930820509084
3.774990297259580 3.328504007307422 3.678849832904425
2.632495275948122 2.338269959849326 3.755321275479889
1.629321460497880 1.101866726379207 3.746052048390557
7.568529853467206 4.662314251895260 0.967807571205934
6.698988618138899 5.563594697753360 2.711706753663138
5.403746130981252 5.774324687954919 4.664106154972157
3.901876348054213 4.600262919153479 5.211500881700332
2.010136379467426 3.131451161111333 5.395500002749590
0.500131593185613 1.684906962534258 5.282711533854215
5.588062299363622 3.272081414715189 1.375143494575070
5.076931053361307 3.598547167065701 2.618600806231606
4.181158740547380 3.342455730372468 3.517610941165398
2.982125039076114 2.500357141896387 3.789970681226772
1.623266190930722 1.196511659869320 3.905624468798345
7.757967124913953 4.734603131168678 0.414369142169906
6.789771816633662 5.198870999744345 2.395951665016374
5.841836815143150 5.684645492729313 4.375197049973510
4.163678328607447 5.036554163729650 5.211988048374236
2.379417953094407 3.198362869392155 5.566845435873803
0.918984315257423 1.662029313614238 5.507931032809903
5.802298974632317 3.232775812052914 1.002856674056400
5.383025920959954 3.579969249298253 2.284547568007405
4.269780995344178 3.429199015004167 3.414990954559929
2.949708207578178 2.500556345223829 3.605780178220180
2.023252702067748 1.511589894194720 3.889510998211681
1.122691079824540 0.428229548573894 3.775390865959044
6.984036999634368 5.393859072511105 2.149026335015843
6.002470024295559 5.845034229250937 3.764267751938164
4.668048385055890 5.108840458932852 5.112479950925725
2.571100892839432 3.627999598898406 5.234919154045762
1.083078703078804 2.132734708374313 5.272317409599857
5.900575530543678 2.679460688251244 0.665844229280554
5.234957104392280 3.670717046400482 2.034442411781741
4.372160102065798 3.594140822584491 2.962003684870183
3.234283193273652 2.870659077825715 3.677345345722664
1.945085054292758 1.855958726144189 3.918882175237923
1.113370623397266 0.539664305742903 3.700138065409405
7.060674155959901 4.948804452494137 1.771653531284126
6.315767806451994 5.356125475063794 3.479101187212822
4.999360773576587 5.268512261505644 4.962187040129574
3.051139070322035 3.854024510828530 5.519079896318276
1.652544299941022 2.423001140219626 5.162446636468589
5.837426190235355 2.893135280791778 0.590965848519668
5.481894313717037 3.538364737078491 1.798259509616591
4.864281930359686 3.736172801216004 2.990573280133735
3.634570040726177 3.248486621601309 3.548853884715084
2.295717818645648 2.071729928531732 3.861314480724576
1.177778506823613 0.778177711937650 3.703821711541396
7.252453258142442 4.935130282540392 1.345735090006331
6.423372381331546 5.550965579632064 3.121332149171565
5.337813290024913 5.469871152511402 4.592891401257819
3.379072638642593 4.323678981978714 5.155629987858802
1.637265998193918 2.564594226894586 5.180261256966951
0.185812737106469 1.081533570847686 5.511307888847458
5.617340204820191 3.402918008396690 1.456792325751356
5.095036057162860 3.826753560840674 2.653942243376009
3.978215422076877 3.355416949775282 3.511799590369855
2.642994338157400 2.330262237745810 3.929562320255479
1.566690404212582 1.099482968524087 4.062332257334136
7.261415278849412 4.774622462538007 1.008744261531012
6.652907961782864 5.172849136939487 2.658087827102642
5.620695180170324 5.459426524223756 4.351316005871883
3.729039561072535 4.627103201393092 5.168798319015801
2.394360755178703 2.965732926701642 5.442203680515941
0.697742735603958 1.131007922428255 5.273040839549734
5.594089576418218 3.297045241507437 1.225572030164525
5.181087203494382 3.690300648627903 2.564505512086294
4.057848924047416 3.396032796404897 3.720512103832821
2.600024670798131 2.480832789882335 3.898145566147481
1.553839723898999 1.269782869183937 3.986852328271219
7.664970333260302 4.437167953797273 0.759651585159575
6.943159178945169 5.277367489561721 2.515918015367565
5.617398211484380 5.555698504854679 4.321485364211434
4.244211506541125 4.785936712328078 4.996067773298694
2.554689060689518 3.174582000227031 5.238295649321136
0.920917110406984 1.392116295599423 5.250753463115442
6.000146306505873 3.105629027464769 1.057731871588561
5.278848649162471 3.688634251448070 2.159051218359502
4.439105746625581 3.690413600228236 3.334543996812274
3.035680617219809 2.789844936219163 3.993278653017426
2.028129914440591 1.668981149551388 3.984611076026265
0.853721606955764 0.393586030748307 3.767010828269941
7.100599423947524 4.851847439049511 1.900989036961514
6.055636448421779 5.532889152262839 4.044493506588645
4.161552702974329 4.871965905508751 5.018379357966293
2.976804642475241 3.472979819544562 5.207551742592224
1.233133114437242 1.985103587599657 5.155520607191279
5.946066359677718 3.041916810840330 0.979255427498373
5.508934701972934 3.694417009171358 2.200205447001895
4.664883267380288 3.753794233875854 3.230782280464460
3.480140725452011 3.036518117333113 3.807099031520439
2.228212884086461 2.082545687810738 4.076645899060799
1.070880241221188 0.644409394186954 3.803828493080899
7.044844243852838 4.778886826282600 1.742479248231614
6.226524787930741 5.608144584774505 3.404341155678408
4.862247718262774 5.202996574168899 4.873309249067447
3.195604714671279 3.720887769400269 5.198983426516891
1.783378067995652 2.266225454052852 5.248378041753527
6.210253567598053 2.741590591374632 0.480182952060761
5.483827263198341 3.461964751924745 1.917371521805043
4.950480451979171 3.662730334963365 3.204129533133518
3.612978675733394 2.964081664290684 4.075018213262102
2.363192191530438 2.037234347263643 4.025753391955171
1.246501519010802 0.725675395681088 4.051527828620515
7.043105556905593 4.638011840048739 1.438107020161876
6.418730206597353 5.387290352192505 3.094817346634360
5.220341432364775 5.096499882629028 4.592050321196843
3.510623298866983 4.009455961126398 5.233002267997644
1.887485983147258 2.400298899179409 5.254605687838523
0.441449572085137 1.065938995465627 5.148322768477401
5.723624693531208 3.414362198164015 1.822483374850782
5.252772194448545 3.817792339398810 2.932809670294493
3.797588698760550 3.342215717760945 3.867400453333823
2.677766621448415 2.089932131783383 4.057133926631514
1.251434147243560 1.211660644802209 4.108023523203368
7.345507028692441 4.480322603780562 0.725874435622493
6.627624501108980 5.280039817082408 2.647275845890453
5.511062993485573 5.051206655270180 4.293378088364066
3.653658990007273 4.164594141926359 5.250721163774871
2.349934476319982 2.695779694957872 5.112907799819431
0.871448207640472 1.214209296298955 5.037976155732516
5.912378175103697 3.593081959740084 1.323282808058044
5.372337400519361 4.091022117233323 2.848469421459114
4.203950712491944 3.635154321553045 3.838310797717469
2.941238831780346 2.570414113107494 4.256298840823407
1.663412452065399 1.601570927116722 4.151917656012333
7.506559125451033 4.353175572436280 0.612138000625429
6.653244275774601 4.827144385770674 2.151384328451385
5.823343450282433 5.331532646729634 4.305256084041367
4.080549066017706 4.511189158342626 5.126591265758083
2.549084102622891 3.118344272410610 4.891297437872413
1.057155897556226 1.365394346218658 5.335884484036153
5.988018661704581 3.312430373528098 1.191529710512088
5.480392281451053 3.792219719072876 2.425988437675355
4.325220255125881 3.707975356469143 3.583788387562396
3.093797616978114 2.867474438338947 3.900755651971802
1.880472694169147 1.717695526497967 4.265837077823445
0.884445295195247 0.464642698652920 4.271157339400475
6.788789568211133 4.568691928949177 1.815588151523642
5.877430186562904 5.345866026205893 3.863629345976207
4.496995974317072 4.532919970362813 4.840723953388180
2.830764792784704 3.259604732460587 5.055305249591969
1.397890542374923 1.748324719408447 5.346054498419617
6.389551597187614 3.405846450080741 0.882989655959372
5.720991143610276 3.864068860037031 2.033241918921337
4.587081238526869 3.869585950965626 3.385208807687224
3.590072661048970 3.175263638152675 4.106647304859222
2.181891742314841 2.053818322320880 4.119661784336587
1.140755577212295 0.687838317293879 4.428010909016089
6.909350812017936 4.475846015530471 1.721978149647365
5.926158560473712 5.057576570433902 3.538121944147368
4.759617579469205 4.960916771192546 4.688978228204451
3.229994991795166 3.484374094339037 5.007383109428878
1.699811937352215 1.928555407256343 5.255198513074352
6.472509887538270 3.080984827780031 0.516395946039076
5.680850186402681 3.717356093000503 1.841668436917038
4.969549540620262 3.836730026406165 3.264889596304765
3.830159751125115 3.123400170725657 3.990256582404579
2.654097181026007 2.193359245780304 4.439246049573792
1.348057342540824 0.929169765451858 4.242082183058382
7.075589669773048 4.594116877658694 1.397665446239275
6.311401238756645 4.805651818479975 3.007304894466498
5.097344694504732 4.867739741016884 4.498174284287072
3.294823766760430 3.647251527633903 4.941634055343891
1.807241253456446 2.406063071151924 5.035969013198569
0.521946855743240 1.008566075329813 5.097114803795252
6.061952686915919 3.877373284524553 1.697960912782700
4.990577766169885 4.082141448928409 3.176079084247097
4.058237766314760 3.523388585054951 3.944891011307075
2.858738355874352 2.445593033056549 4.106851592536907
1.493111776495199 1.273162541124388 4.146954220447124
7.319657423125350 4.137781215114761 1.021578743606492
6.401502945598887 4.750011078257256 2.694913193947060
5.149180432907187 5.176078701595018 4.299354390923564
3.683978382457736 4.137001826490876 5.062345144159825
2.179508769858937 2.379445297288502 4.915980088056799
0.880598624865880 1.199433978401627 5.167183572583482
6.200644542251110 3.509140331629292 1.675856955807078
5.524181488068321 4.198804488970745 2.865696417174385
4.489747744993771 3.812719230955631 3.842235798025059
2.891660707936404 2.741957557056157 4.208542772923333
1.633735106414347 1.593063453201421 4.440609653768764
7.364855553680616 4.027443305513527 0.888264575387346
6.636866161597053 4.597863734864212 2.275742688125391
5.609513724797765 4.859701081082012 3.964189133549621
4.128456948371414 4.313849001321331 5.029693323206375
2.686499218148406 2.921531352627133 5.091218561021047
1.273179863463992 1.379029952838039 4.877445358229918
6.277039896573171 3.541941090546632 0.903861833411613
5.745705886060803 4.046130296612362 2.692824224606818
4.490777600618602 3.929378752241615 4.035916833160648
3.539116356258108 2.964504191898737 4.225320059643521
1.788412441008294 1.756678435389593 4.275632752790262
0.875641356136780 0.546503145381841 4.205775409929659
6.921871174700335 4.368555951500995 1.898919219355172
5.798149641496781 5.024283602695671 3.585950524981381
4.499311029847827 4.331234836461843 4.830841911157384
2.948467404552441 3.140862487749123 5.183787777993811
1.426591439045801 1.630202384928249 4.775201258140908
6.354310310716472 3.441347487205825 1.018961207829544
5.775826667808539 4.063407391641479 2.249613428826976
4.949084429578664 4.240339456311881 3.755815271555790
3.545266160252396 3.478094335138981 4.227880346680675
2.310101589923116 1.807084904945006 4.282304805328986
0.969744073483407 0.919685507981380 4.426995916812102
6.626736006567306 4.244262033321405 1.365695665801543
6.061945945162960 4.893281023463310 3.163352663395988
4.558057718508115 4.556452016492250 4.711833693931099
3.103745208313525 3.195691853751187 4.982127958108644
1.774456553445204 2.042233931512438 4.901454471843439
6.559483157075027 3.387687209340744 0.611146796510742
6.081479129822045 4.109019836774878 2.237713828622839
5.082866363591563 4.487404473913790 3.599691681182602
3.892105388578490 3.513968617078213 4.105482863450109
2.490132352769960 2.376131323261352 4.210667449339187
1.221201106740309 1.151983293042755 4.360362815150499
7.037249556465135 4.219233570620514 1.249428364346858
6.218668908231100 4.547907228126626 2.972489831556818
4.936128508974732 4.569619355570665 4.218811574625000
3.338156639938131 3.589123426573341 4.849079171387711
1.870596861480198 2.142560625597876 5.021713840821115
0.642443344706226 0.542325035931770 4.936506507437570
6.186045183281471 3.744477793208628 2.046497937156984
5.458799025206909 4.363167211463749 3.468793962934924
4.101274029949241 3.767369868228379 4.452210422945885
2.804834224170791 2.829827944020533 4.501168977505807
1.420197534434356 1.305316461262157 4.584877189646900
6.886796285571548 3.800374173826342 1.199526110510188
6.217996212746689 4.420705813291003 2.813634247405308
5.128053220588134 4.924767632504296 4.213315832475685
3.841222008972585 3.613604358253814 4.768826299956465
2.455074291471931 2.504746907061373 5.057117675280687
0.882007918680223 0.768287084709452 4.882179722540929
6.426647761093574 3.879597396180079 1.419796144094168
5.841452738107616 4.172218952460740 2.939276896951776
4.436240492079319 4.174206907540627 3.977409133835008
2.776547570305758 2.921241074908477 4.486355422447898
1.616803586990555 1.523942553290439 4.542521657212935
7.064071402673358 3.610105518291792 0.834688699724376
6.462351618478791 4.393716587438518 2.152416542267142
5.675026275113665 4.809877278417406 3.798256577966717
3.994911461350018 3.984054241117891 4.486744289004498
2.536952622567041 2.710904744804952 4.581826893279715
1.256668452476063 1.149430683623659 4.807901907765451
6.466098195242721 3.573653204123381 1.206524206072946
5.598124883185426 4.264614869553100 2.841446972158240
4.765264733652453 4.230809948792802 3.903692035344503
3.238700420398929 3.118197573796299 4.423129513328409
1.892425296107163 1.813465551259717 4.608888992608256
0.584833434053022 0.760705059113324 4.657742221117930
6.586270898356393 4.343980097203385 1.977862866195066
5.819015252980859 4.749839091386396 3.439155391387509
4.239572753776496 3.935075002376133 4.645825654543464
3.007224142773064 2.845979554237740 4.782884371462668
1.474425589969595 1.710402455777181 4.652829986143429
6.587700564666236 3.487021520179804 0.972364400376428
6.072924175854436 4.244126329022587 2.383503121648697
4.847250085593059 4.459880422382436 3.997854484098249
3.750956107488141 3.519401263018177 4.515012878182621
2.109434848630082 2.248437775753765 4.616294157440694
0.947496280251902 0.782017711215213 4.527166887966652
6.527513064141809 3.901357280111006 1.583463214011287
5.955999327920844 4.658835695230237 3.326044186469902
4.675473999911905 4.473041039475663 4.212954346136292
2.876435467200155 3.079480387835261 4.870092849218406
1.794543613805626 1.728157263063362 4.899855253092052
6.745915293020671 3.368930905059376 0.599984400709479
6.407594195316240 4.157067235668834 2.138956814554238
5.039370747679428 4.496732946749110 3.645943598480031
3.711778610073650 3.814811572786540 4.546948682428815
2.694232103252281 2.472203449493684 4.454323199714557
1.332575445222015 1.254356358997129 4.744061309664851
6.682814530332590 3.842409254246775 1.192079120048295
5.859197658596759 4.517662105211164 2.739771642732992
4.986021848492753 4.534843614134634 4.349827492925648
3.280472097543007 3.423010047446148 4.594708963482414
1.980412555040899 2.176377114380136 4.680186760223031
0.763005393089187 0.719491985981975 4.676691680357040
6.477525099134267 4.039266817483234 1.769536186903982
5.601819495368878 4.566618788235044 3.251015291425907
4.041796149555498 3.908899404852120 4.367189231467996
2.838511517246364 2.619271576158832 4.650438025548724
1.446045184168691 1.389341726723181 4.457187379393601
6.927095829881845 3.788822103246313 1.147279529796632
6.443926877582059 4.360445642439076 2.483048630719098
5.011765293430163 4.753353643273159 4.094921437164127
3.840834879807447 3.647025302345501 4.711277128317408
2.305701784432326 2.281087120612845 4.718585238124836
0.949397726295148 1.004181845231608 4.708746364318709
6.530022787926786 3.980529753824916 1.676098156062406
5.518782841577908 4.581872683356049 3.187910299254707
4.523087143736793 4.233563275183053 4.223721762033706
3.056782608649275 3.227281143386037 4.496517636300143
1.685082367344122 1.687469821303376 4.543516771903081
7.258593567688075 6.014078082918743 -1.080708954388929
4.624090764422796 3.052184531381509 -1.227185908336838
7.839316372428594 5.632338645155796 -2.007436786901680
5.052685694693597 2.729088942048124 -2.219564082905934
8.052573319180537 5.376627521059613 -2.669122890936824
4.889199936593564 2.738596207394524 -1.931613738523523
7.772980031628897 5.725818549575095 -1.928014197778558
4.534625366395206 2.908699313009047 -1.210117624972710
7.319979110931532 5.853044902260838 -1.431594320578475
4.533035892592132 3.043675192816035 -1.262940936841716
7.240266863638273 6.352910976691541 -0.644270276730373
8.371976484169855 4.716035523822826 -3.553826621372187
4.786679090385224 3.007018339796412 -1.481207808402214
7.611247868677548 5.746185834524383 -1.320850265357732
4.614355210250456 3.364377305870224 -0.787209929298642
4.941373821659084 2.437052109675822 -2.256042690173034
7.553260693894074 5.542173122651566 -1.943939586633189
4.444242253008910 3.098358224639774 -0.837031142281008
4.938920727476958 2.727755532241710 -2.127245440221940
7.488687138149142 5.710387304938919 -1.234820518103592
8.485263473691223 4.900827932960635 -3.543779492991894
4.744106081325135 2.909611255930160 -1.337393155742763
4.490919111703949 0.925824892013903 -3.311330072698659
7.981271389378668 5.330155393853695 -2.289583800395651
4.585218359865857 3.062450590720151 -0.780346010699819
5.051633901438909 2.767805898369764 -1.733946043689747
4.878963216449020 1.228841455270108 -3.415846669102046
7.653202804059660 5.478489199466837 -1.819119879678791
4.462968951711105 3.148778183648135 -0.560313430463807
4.925645571739259 3.013654690607543 -1.871831552280418
4.962773426221998 1.602655108853489 -2.932617139817718
7.414001389898049 6.029242344464071 -0.528532810213392
8.243671100723242 5.070040528360415 -2.755511255470875
4.765746443256702 3.083757190722405 -1.098808338867623
5.033489266456172 2.355328443592256 -1.978467659394910
4.908132862978872 1.206890555235419 -3.325081089757804
7.615608049836483 5.774751052654543 -1.079933518888844
8.233320979458876 4.956342630627876 -3.038551504826419
4.685017760279633 3.235780360241782 -1.048358758973446
5.124266444716015 2.638816593495340 -2.119844470771129
5.032437975634586 1.463128563414376 -3.075367004874535
7.198333859923364 5.895557315859720 -0.571943908737538
7.999004844874766 5.081108527071830 -2.669270622956081
4.394291766152691 3.071148542422617 -0.872297055014954
5.153662621806505 2.624564640264232 -1.740177953596843
5.258491964243088 1.797490082686458 -3.120961202574845
3.375027497710448 -0.498602866223410 -3.590243900757007
8.191307724134731 5.345520068885178 -2.079094350927540
8.679066600272112 4.077981448386395 -4.485946456324932
4.844909689011530 2.863147420635867 -1.403299935642477
5.149726518060636 2.165044897438089 -2.311126032327991
4.964850817578855 1.294960240872886 -3.202207763714298
3.530782297243304 -0.269250116929368 -3.261275890503735
7.600017053130884 5.588276831439864 -1.380800094541176
8.549435956968598 4.670427152893455 -3.444965939026301
4.813664144882570 3.141327220011130 -0.990367517006392
5.213014377507465 2.588653571236462 -2.180498707544369
5.144269637036142 1.918121510114300 -3.020311596154563
3.905325403521346 0.160956835138236 -3.265548425762177
7.597260926400466 5.879679965734209 -0.617281016327013
8.435412979797984 5.174480043008521 -2.417363802004885
4.800520800939154 3.086116298676883 -0.586361460122155
4.900869136802859 2.728588003508162 -1.775622760876747
5.240714875677165 2.219137912380666 -2.694947798832666
4.655000951102950 1.021141188630876 -3.354730809235718
3.403500032726060 -0.414622566884273 -3.430931073773794
7.750806515610818 5.443722620861159 -1.412942517218711
8.422774208683723 4.551588274223154 -3.741513038991524
4.702269285743182 3.163894026228224 -0.544981644779767
5.326649905378691 2.587980093899879 -1.720150017931617
5.323142069091440 1.977379198678199 -2.953210668775503
4.669297387403594 0.854286040673469 -3.486494296614800
3.336012748223070 -0.701746438603600 -3.528197055081769
7.707428264015622 5.704656791633972 -1.261615365952673
8.513984816354979 4.586695336530835 -3.377426210793533
4.717130668800539 3.250268737788869 -0.485802034642000
5.092108089409355 2.578850443852598 -1.446566672788640
5.413016909179305 2.165375977385950 -2.454231707115145
4.838658231938755 0.994431905864019 -3.405272014463945
3.895704856931253 -0.213487661730238 -3.460018730079951
7.527916366175678 6.071085622526161 -0.530614961179625
8.401571545372240 5.036387177455449 -2.451783422477046
8.723758294508322 3.943410470511484 -4.589861677332104
4.646970966482293 2.950243596733252 -0.903227202209062
5.063441574728130 2.365941819908643 -1.985029612491752
5.400963312036564 1.530418722574322 -2.991592968765280
4.729426504376517 0.648827869449122 -3.369610388215855
3.521893652897373 -0.405045706351405 -3.492948985404383
7.627427665589111 5.798231563884889 -0.933509462875664
8.145744984860769 4.920698474020105 -2.938984051548292
8.784370242345883 3.131952310508574 -5.183131196047969
4.756293604592141 2.893810490016433 -1.264557566800796
5.214899865233918 2.240322188329973 -1.965993038843463
5.189108773577995 1.541713258988314 -3.009084431662307
4.356831171875792 0.408041625808466 -3.233522063674476
3.625418378837697 -0.461499795920587 -3.248855685490834
7.700382766572065 5.646569382753356 -0.975034548225279
8.330710236192939 4.721712837386080 -3.005974871270026
8.581263899235431 3.447851495043501 -4.904128152731735
4.683829416132704 3.078313988856111 -0.766975908683942
5.242378028126990 2.690859851203924 -2.008393387090642
5.221238313738587 1.968104725949174 -2.921190829953312
4.597448593247292 0.934201089124637 -3.260437539257895
3.662158810745499 -0.427455709223118 -3.406874330856215
2.711137204653454 -1.133356991061601 -3.311362593153991
8.043009900876090 5.238745624689842 -2.085037597831912
8.822987447238503 4.068351009220202 -3.965958488540271
7.551705396921032 1.547240119791038 -5.609917610552201
4.897197601264773 2.580163063896456 -1.023682033191478
5.326604475295442 2.355368124214940 -2.066939685556650
5.284620487119713 1.587612563584926 -3.325341114680698
4.403318843085330 0.551734112319490 -3.564447341527377
3.373500980609885 -0.718046362017541 -3.187638762529014
7.499327680079353 5.833490464531236 -0.606720586195312
8.327079920333768 4.901205410223674 -2.568152747990831
9.055693457653714 3.640622187174034 -4.748346295178508
6.912285805546707 0.732014184501433 -5.742153139660769
4.751023646660160 2.781835729126597 -0.892381562511458
5.050426526092338 2.398823191149896 -2.041564561261965
5.358937528506111 1.572648262844608 -2.956267602681391
4.629542394881864 0.339943499203670 -3.313305739693750
3.520663059658554 -0.597579129693866 -3.351136105376511
7.637141796370059 5.961761015954257 -0.319011111632639
8.137794253085463 5.093452453756117 -2.258733106500949
8.817716685905872 3.861395276479830 -4.287498441075711
7.257862481020052 1.015848731360523 -5.806875802250684
4.719171656882935 2.881727111422454 -0.556667518775709
5.304578311321042 2.574039919969058 -1.728626570673244
5.171655590112683 1.688467397471243 -2.925053182017145
4.818555393097812 0.857340350274180 -3.505454053791436
3.598546832013796 -0.171276883465827 -3.360565549867640
2.659807548374547 -1.218379089813613 -3.474440796743096
8.016543320595414 5.257410025071691 -2.093295272589272
8.673150490566639 4.212065932654043 -4.012083732846414
8.296657283125448 1.918571604510779 -5.740788623179461
4.720830007469925 3.061871556008749 -0.279284571117812
5.137272134656214 2.775019951588447 -1.504868452735350
5.385240596765468 1.885868389611375 -2.533807420821984
4.932354053078612 0.989132705224697 -3.430761135504446
4.109704855913058 -0.111222946505642 -3.281556072094690
3.100539976464965 -0.787552954598082 -3.295522385402567
7.850976493338494 5.604075520053157 -0.976727640569707
8.652569154509354 4.618132948963582 -3.193376641792849
8.996387399080442 3.223231255293347 -5.139466215195537
7.248507031870700 0.730138772172453 -5.851252477464726
4.644956670384103 3.033007979905960 -0.397532882871464
5.190550628941635 2.349946872082617 -1.721348095490354
5.468515460686212 1.625063978827360 -2.737715732891653
4.901645328554240 0.803074583024134 -3.380654006383269
3.859784971801177 -0.130659533110723 -3.485775172873561
2.935766784408237 -1.074208590818903 -3.310912573721409
8.050747169324747 5.423028436160642 -1.586634676361502
8.778154175804561 4.211028304510491 -3.553548893649663
8.527488959471230 2.961059388816941 -5.154069063373615
6.517067181201543 0.179308719075551 -5.661143609158771
4.996225537045884 2.803299243354092 -0.634642051454178
5.098940004300834 2.395330147342923 -1.801927046600958
5.498959312779705 1.626526785359644 -2.978389680746047
4.902822365086131 0.709461286873418 -3.298550676918565
3.964374970487926 -0.211651400263677 -3.516734728706555
2.921955824913893 -1.129194688945154 -3.568162759257290
8.081026256401959 5.209730033487078 -1.749586982788985
8.730040821059385 4.242059608332589 -3.715416730561890
8.414859995748472 2.709747360387555 -5.407144385683030
6.413793743646162 -0.056921950403531 -5.993147976148042
4.993274979962425 2.895411090936317 -0.669616415177600
5.176877787132827 2.297276346851419 -1.532621359114969
5.405528257986675 1.935387783118984 -2.689128061819722
5.010110814494440 0.756328995966058 -3.297925704799206
3.870309626083285 -0.293317304514098 -3.294858169859464
2.942375929962702 -1.220732342353088 -3.338515410334399
7.819254886551354 5.245790310862747 -1.602618434065487
8.816750434013688 4.394344680636876 -3.790090593712277
8.559596789245736 2.897937334783324 -5.262685764741676
6.805968958049498 0.262633817249457 -5.899920863051991
4.343719679753668 -1.961482021503101 -5.836800271280589
5.182556527097493 2.427861884601022 -1.258245534783943
5.599997948179949 1.882907792608255 -2.325428210010504
5.437188588482249 1.259253951416168 -2.972360923094527
4.342135993451533 0.371144653193892 -3.246248962304937
3.362169778702692 -0.841533512027702 -3.502847875900072
7.779061420489383 5.738364408573063 -0.772713912742536
8.514380550581755 4.614707163193756 -2.689956157916959
8.867746182595713 3.350926359591701 -4.685650103897203
7.907965509377478 1.860054906963689 -5.615262708542722
5.946803267983215 -0.387416381646981 -5.707814175257702
4.892648211341339 2.960776931311098 -0.460408568388270
5.456407506034468 2.560143301204449 -1.445486887512870
5.279782009165778 1.795940215548855 -2.566294750996477
4.955729532324155 0.600126350747582 -3.311541326334657
4.189329314949239 -0.110816326295821 -3.064108988604608
3.134970163110165 -1.000455667332876 -3.457963689664740
7.796992407537561 5.219685294038653 -1.350981410329185
8.657144247514058 4.447579896751273 -3.454640137019822
8.907932072534251 2.945959686194459 -4.967434734166827
7.374214441986447 1.112798104407501 -5.930636703655582
4.826115067841512 -1.742399875634224 -5.889672147495927
5.284744696549737 2.681676878333179 -0.848784074898218
5.296424831044697 2.242994897384930 -2.027090513003085
5.554692949161946 1.356734875140656 -3.138071991239124
4.608680363822077 0.232871055273143 -3.373464518194917
3.548565817485664 -0.707053625514477 -3.543220123564216
7.767730954764929 5.724492622141824 -0.518963035498131
8.516450562139337 4.840438532618313 -2.398206325524028
9.086105436305042 3.745653458928094 -4.471152900474595
8.170870816355368 1.947150969674879 -5.413641674070711
6.383888691747964 0.176944473361634 -5.641659308440604
4.034804999633796 -2.608558033769529 -5.852458233928574
5.150456454320262 2.609489296905959 -1.043749528533416
5.749259923020358 2.027753392613998 -2.195221281301657
5.382517742926007 0.916320734660251 -3.141496725986827
4.384605085517247 0.087053764532265 -3.357104044073473
3.436096159534818 -1.034421992056876 -3.348962067086164
7.860599719275345 5.264417654132044 -0.770584670294169
8.490781741981582 4.761746308609760 -2.755589352746666
8.907871072088003 3.163503890318609 -4.610052855326044
7.787346776201546 1.678091357372569 -5.531774118934667
6.269358738288249 -0.506857220842716 -5.802122836779387
4.215413389662135 -2.245787684477155 -5.675229975531458
4.962017854525261 2.565048122704207 -0.933704651957851
5.625295271661434 2.207383247014937 -2.169388713548130
5.202362266771756 1.138981060524167 -3.230873749158301
4.629163996344339 0.228771629602101 -3.277111813700079
3.435285117327619 -0.869429576717257 -3.350975653093611
7.734277993352586 5.573557379960010 -0.618037189841434
8.597492912654676 4.681618415165512 -2.542874796284551
8.871486128547527 3.419890265979270 -4.328198305930295
7.950118801877457 1.528379963632314 -5.674975604411516
6.410906528640353 -0.166343740081722 -5.637064764786606
4.506618102654343 -2.053184107173401 -5.553966257886660
5.033265037098126 2.695597380634550 -0.856720659000458
5.691015473103937 2.255115083704989 -2.128201770750985
5.425748273650472 1.291060499469891 -3.041937178112197
4.799830339321492 0.371131954831888 -3.412868896495027
3.721201093269402 -0.744641898011152 -3.443354722214949
7.783554573368495 5.558188474447371 -0.215388125154811
8.501377957218768 4.745674064166518 -2.081695776661060
8.960470186303187 3.596024960730605 -4.274034871211802
8.186761230422864 1.838973565660980 -5.466311862802267
6.632256111458410 0.145810145343690 -5.888861926935458
4.865864781151893 -1.481026383880396 -5.679525807315023
5.039664921718455 2.540968721283682 -0.771983950774220
5.286596578071031 2.288834172065104 -1.755477571561224
5.537439957855511 1.307745743847560 -2.674620231448180
4.782668212389961 0.300786018725885 -3.227458105369180
3.679940059751557 -0.606758093325827 -3.165199010215972
2.941140799632541 -1.378306777977914 -3.169951025761122
8.516329924771052 4.935072499160484 -1.779422797370937
9.053384589907196 3.804683516803447 -3.873817508421300
8.456405755818682 1.992249484252148 -5.482428167907447
6.842336553349004 0.366688397044013 -5.905521907369818
5.089396855380806 -1.378200389758150 -5.602319052273051
5.103879112685392 2.639024252130763 -0.503849186367147
5.578327676088969 2.109346036255912 -1.605472835763246
5.830467721555445 1.624311002588769 -2.684910340023819
5.118560238129505 0.575159629767051 -3.002704909623157
4.181187220229172 -0.395414546514379 -3.378986294545194
3.202684534853275 -1.241613569433764 -3.358376915325769
8.268293777916568 4.895290495227172 -1.664403687255593
9.094858302828889 3.928380134386603 -3.679034205353962
8.797926581953373 2.443043603629595 -5.200128728086995
7.052854206023796 0.486450817370063 -5.862228610427080
5.539757819605323 -1.215502519292470 -5.543840312033613
5.097265137919597 2.813025586464472 -0.448803123007031
5.513293865110342 2.538763827303211 -1.397365756769404
5.522135585795982 1.667471857001176 -2.554917292828615
5.024527134415758 0.669810504880352 -3.369565419435991
4.323992911313820 -0.461824008350816 -3.138171690981718
3.481360456953524 -1.317923291471327 -3.228427824770057
8.157319356694281 5.037031334069574 -1.317891496035509
8.899039701123099 4.185278157810113 -3.080801058139570
8.881503239080693 2.934793566255150 -5.115553263657765
7.326039129895203 1.149199095733020 -5.568191616027806
5.915253386449251 -0.853926225478798 -5.519452219626532
3.986694554169324 -2.551516608479655 -5.546240257240539
5.426633344589723 2.497829722923684 -1.367554984707704
5.731209915740783 1.789541934217860 -2.362503939282570
5.469015292549697 0.792120090855500 -2.965932224356314
4.560050080700707 0.107610815457172 -3.320122609656023
3.498848463028724 -1.214143686901070 -3.350279060132404
7.926018126394139 5.187855165574298 -0.805554635973158
8.771851422570986 4.661456612606344 -2.763683553693864
8.998096074825884 3.071197114219051 -4.727743586246556
7.840838957016043 1.246075581814735 -5.391474139995434
6.010897317709682 -0.387716568306030 -5.781657751780072
4.367043776216025 -2.496814595548272 -5.692856703860957
5.307057947284227 2.429407159277559 -0.752109594917282
5.677988399906176 2.142764102410713 -1.933495686908221
5.428542316306357 1.050322706010346 -2.978015393474065
4.607264351575358 -0.011864265405895 -3.155088807207929
3.562152386436712 -0.923776064535110 -3.236214953385041
7.769990002276495 5.325799788863317 -0.279213522561151
8.592459538859000 4.800917583821906 -2.226286563426143
9.094323475995703 3.206603485545004 -4.319973304347176
8.052391450587766 1.757128645522989 -5.550078742808993
6.407637804295982 -0.198292508798227 -5.491533639891391
4.821814344278668 -2.079230101106638 -5.741301730775879
5.244409262965189 2.660968837745747 -0.690442070802322
5.647666422337866 2.249125386464158 -1.920552913280186
5.709255363424424 1.469209883499101 -2.967802403642363
4.705516860512552 0.203033609617740 -3.206176247773361
4.045097260307466 -0.567534291237300 -3.349298445274057
3.044455602706739 -1.785734776515234 -3.180616346138162
8.409057127562452 4.891818522684754 -2.057685069890912
9.159942970249828 3.873082349668656 -3.767398353143429
8.227581526352706 1.959780571997956 -5.324489687731684
7.012452555977887 0.254577046718618 -5.769846101519987
5.228770555938770 -1.601057574765816 -5.755851647282904
5.183536557927777 2.646436074723832 -0.593512922676806
5.428335110591650 2.149878992658728 -1.612216081719871
5.658155669602436 1.646464977009724 -2.584300815231791
5.135299988480169 0.501077323673977 -3.182057763363051
4.166273274445349 -0.396268896317675 -3.414214083540842
3.222896244628907 -1.488576855471633 -3.039505315389160
8.151378814783552 4.834309811885818 -1.419562478222532
8.777565516903913 3.932201653354160 -3.662176306906995
8.724299511843586 2.547653648344351 -5.343242234344360
7.139613628598818 0.480640243823453 -5.447201285981618
5.487981890663967 -1.072596080537751 -5.602669927385418
5.203647287778304 2.932306128944170 -0.196603689677156
5.671401732339270 2.266825091171345 -1.458035317016377
5.721802898784080 1.713428197542513 -2.605767750010343
5.348280969688287 0.583507788596854 -3.013953813195680
4.374866981231755 -0.122488275062397 -3.212481628158376
3.567264925680500 -1.291184943036679 -2.976825194130090
8.216610990439348 5.161731197791947 -0.991011499539064
8.730796615749446 4.105302401330601 -3.327672338010197
8.817408808534893 2.963025268672844 -4.906890194602288
7.631116930148919 0.749489668031358 -5.475096958018293
5.755288428131117 -0.706856478569534 -5.619606703566181
4.043082437191046 -2.555603073926971 -5.800060951338700
5.613607563097722 2.250851455428426 -1.215091125148514
5.832440392059071 1.867436670459496 -2.371630040690693
5.456881399511576 0.595454915464175 -2.992660570185667
4.495277359159322 -0.165825162517117 -3.319888089944302
3.816611372542293 -1.154918283395677 -3.089212601888735
8.017092100425550 4.965377771718507 -0.629941305651642
8.880438403708984 4.265915667959695 -2.692282902281494
9.024963972756348 3.054005443751759 -4.725137017084140
7.727741420510385 1.053667918169594 -5.443983918066357
6.338018380521433 -0.723948385367243 -5.562837417384248
4.316461273997854 -2.108726536265332 -5.526542991237153
5.214134142942718 2.535272920306971 -0.764574048004986
5.893617382643375 2.009833907169881 -1.869769980812538
5.563123772267996 1.101870040905861 -2.820183236283462
4.832224088963331 0.253264223769589 -3.090508761963512
3.752177785496541 -1.137549288957991 -2.987198401818246
7.663078925983639 5.227268651576256 -0.489514220326563
8.747423929890273 4.651251202112126 -2.410344313794639
9.205511656618626 3.476730479877338 -4.228924708789852
8.353828739027099 1.387850627322686 -5.402196990797415
6.457890638116961 -0.268959860675129 -5.404590099749860
4.706940749362539 -2.129722921313065 -5.478789689094107
5.381691528720938 2.455960107447390 -0.484274563346726
5.832797826128962 2.080702425122094 -1.841721101371286
5.647574906770219 1.202294286135590 -2.771012768709411
4.932793687606465 0.038363691057935 -3.107970153819988
4.007585349061717 -0.799725485214725 -3.029426486204118
3.020803683234540 -1.786398339580439 -3.009931426626330
8.577506849289644 4.757922259408854 -1.928386526533367
9.134726467528141 3.685296674211775 -3.865216171560745
8.481237835432879 1.638942572752130 -5.285145397515651
6.854765994429082 0.009879758628276 -5.399055440942415
5.155495050154848 -1.435283986533241 -5.436978002693596
5.157209491809768 2.789868389058122 -0.296053251189278
5.779068464571936 2.384483947562643 -1.382392245578938
5.808748027095563 1.239547340613711 -2.538386357155544
5.301606282575986 0.281729447281995 -3.182815812139945
4.303652830254075 -0.549018251216750 -3.192420599783824
3.396293668124593 -1.469282255982825 -3.256172304855470
8.340088448395825 4.858233441415275 -1.248992822961775
9.000293157601241 3.852123638217367 -3.409643246755032
8.990376525528662 2.203404029031582 -5.143429719635750
7.166498643877860 0.241834113762415 -5.394828555219136
5.671888036050770 -1.250156546820274 -5.464131821661563
5.362425260855822 2.724140514047431 -0.300581474946892
5.845392731624174 2.136362836766728 -1.286649582791858
5.816249330254596 1.560468344924834 -2.621355168554888
5.388377880853223 0.728528636199007 -2.995147271096531
4.452518802792181 -0.359070931113478 -2.964236016739972
3.549828300456915 -1.531113924938303 -2.997568332832228
8.199274598074583 4.831889735976595 -0.800455998352293
8.818114251049478 3.962713718161772 -2.845634240155041
8.884433126624989 2.592305007241146 -4.629851958152199
7.424649846105941 0.731828073675324 -5.257340461686547
5.939891325910133 -0.775547814617113 -5.611086167808693
4.169036238305980 -2.698398402605344 -5.618787026879558
5.574692546532263 2.533455656285246 -1.115349231589486
5.963279450584513 1.897147258341468 -2.202928707480400
5.587744280875956 0.746448355761870 -2.784274637677996
4.736471428492761 -0.277731940695171 -3.148313068807937
3.850996862964349 -1.180540657827152 -3.163571691161299
7.968448000930477 5.146170241197012 -0.565130639234792
8.800960004492499 4.371496367069997 -2.610711711558974
9.058660257307574 2.971713313752390 -4.683675886991315
7.729528277831150 1.110636907418470 -5.418687703141697
6.275853387780273 -0.663200820189968 -5.515339711983845
4.417226878500542 -2.473822571039596 -5.476853829569026
5.614996689400108 2.538980627169458 -0.692007976936356
6.004926110857837 2.052707311401387 -2.184692206525229
5.848164175034672 1.176462467655545 -2.685415974494813
4.923589035591062 -0.044695941593957 -2.966533698703248
3.820590534070461 -1.134089035615669 -3.229215599831265
8.079800550351365 5.226210280471926 -0.263079963686541
8.744371164105115 4.581094628164107 -2.202636768309107
9.256894963550392 3.093641300535204 -4.173126123062941
8.297430111071060 1.320596898385179 -5.292875375788933
6.684839090694952 -0.492818225862655 -5.406746262859954
4.927370783901448 -2.187896329519497 -5.500293173626598
5.606858316843077 2.418491053880282 -0.665191242676162
5.709511619256549 2.114685987223481 -1.633123403602742
6.054963910406343 1.152004264220022 -2.760348884743220
5.189364078376174 0.144781279435321 -3.144772312430212
4.297289233687442 -0.826515573092501 -3.272022045903351
3.115717068563311 -1.866462871864609 -3.310111569049019
8.407093490768045 4.496220047834462 -1.964370225109889
9.116626887456112 3.391401008988188 -3.862965890694471
8.591601729802388 1.565015094045694 -5.137780689376388
7.123599020568673 -0.032920182390224 -5.548181998734083
5.323816053430365 -1.681953889347768 -5.324736570111284
5.288169906582626 2.497049154642637 -0.339431954082114
5.832830099860870 1.943952591481113 -1.422230647316474
6.154938753520153 1.425099972276655 -2.685475690359757
5.308324495835855 0.133530080620538 -2.852738086505129
4.401825944603035 -0.786110310423849 -3.290567709791519
3.507746144267537 -1.556350892129552 -3.143227289984098
8.397066510405320 4.770028595052603 -1.496473508967343
9.260859737811680 3.773348311417908 -3.230576315877655
8.697482943046325 2.077173440343571 -4.860127487760757
7.254290041584415 0.246643671990124 -5.574087104066161
5.631209254410191 -1.510148667560908 -5.530082233857319
5.391457557100341 2.919312970919370 -0.128019109147277
5.706313830238818 2.137240408907190 -1.293472891719921
6.029529336340660 1.696057810987602 -2.550835802006343
5.640435951833078 0.541091820627960 -3.128024729357624
4.520144764588638 -0.452835744459329 -3.218360564847212
3.496368978885973 -1.463613096267031 -3.133747357234846
8.186979331630937 4.801517518518966 -1.153200048074575
8.808793053706065 3.887834785359486 -3.074366628500520
9.253668250015085 2.444590250990449 -4.786934108467656
7.812125559701915 0.727409871850830 -5.126817752958551
5.861076898474185 -1.102621687286678 -5.626740008636879
4.169612259083424 -2.942997646205234 -5.261606929715489
5.642994246265816 2.545881347587253 -0.915610411921276
6.145428298977175 1.700723305301564 -2.217961791600931
5.654092827425320 0.675264472259179 -3.027300156256073
4.924420873221537 -0.345098426779253 -2.893711600622185
3.877566630607673 -1.476923370155024 -3.204182005257523
7.983846402724502 5.003323160487446 -0.796148428216577
9.004815443016176 4.159682913677990 -2.668436659221222
9.028263271108724 2.830816403284045 -4.626319416239182
7.815612935207138 0.848857402225802 -5.366383275484342
6.080096138228869 -0.678714958846566 -5.295943077440448
4.623267155247182 -2.383242033921400 -5.538151823367971
5.621489318710612 2.674619702827114 -0.671381098873474
6.203089213759049 1.832127086079849 -1.833634033505469
6.059919245112473 0.882676707605538 -2.902674959319984
4.963168408425897 -0.180627844679280 -3.003137489384994
4.115370614235767 -0.915205095328230 -3.133988952253139
7.993992315383468 4.968901236853235 -0.299587988353671
8.761558771813462 4.317634001621370 -2.186459671007229
9.027275276210281 3.036100997884553 -3.926559964581822
8.188212526274318 1.491900622991543 -5.019612168736990
6.574934314919783 -0.409147246393532 -5.525477748967517
4.780232767847453 -2.133079160072128 -5.279528511414243
5.856023582547491 2.467563048938844 -0.608638346053013
6.164640592797074 1.791574032269287 -1.776186772130281
5.967217498818944 0.931759921243942 -2.794952570421925
5.284451531595301 0.263138984500148 -3.154872931655484
4.285337815885162 -1.055939323669508 -3.276823224262993
3.308891930632603 -1.898139946665297 -3.231780092449897
8.541572059682668 4.244437076536521 -1.844558444583236
9.177408549737653 3.391814411595149 -3.661905963879874
8.598986896852992 1.771536663990679 -4.905461827995914
7.202501022263625 -0.060541518268105 -5.238201394195766
5.183574938371000 -1.754457342037695 -5.275303552760488
5.494407428755244 2.804918392701527 -0.276904890879260
5.872833748486546 2.324563311740711 -1.375234056028418
6.062757335823513 1.572826877668503 -2.535461828033433
5.320720612876897 0.400379431411887 -2.993941055219755
4.353037495201654 -0.845938932263172 -3.187587529173863
3.531476678699247 -1.968878698690858 -3.032945516121244
8.433876386826270 4.515699863836423 -1.177176755337552
9.048184876465266 3.601360935554125 -3.486402463080290
8.663406324468964 2.060276131778980 -4.788601914621380
7.418286283203709 0.038926415589240 -5.282058090270072
5.428258466156412 -1.365278465816975 -5.294961716324702
5.531413298678016 2.623767233158892 0.145517796354646
5.884305818590284 2.266172130877412 -1.033866580002385
6.132769350709737 1.694636640783130 -2.413148516512177
5.821238747278844 0.486876482749376 -2.870116757987881
4.727422150372075 -0.682952641169106 -3.134853910751992
3.645820154265346 -1.497131972376148 -3.165743883600263
8.137367671781622 4.594035887709196 -0.935176937327979
9.012823134995738 3.741333686047610 -2.968307411378221
8.813955989029765 2.317671227977811 -4.416916213600426
7.601713491094449 0.653437452600400 -5.093672948570493
6.057896703394597 -1.161461268917623 -5.433060456249187
4.233198000320394 -3.064451635497965 -5.181969935858781
5.868888895134274 2.200660088069372 -0.903846652883228
6.170297097007002 1.792644201791769 -1.977916364123206
5.907127237687268 0.741487749874548 -2.804844616256867
5.155916999725174 -0.370480952486003 -3.177209170147854
3.873075600884444 -1.385849785190793 -3.139029327277779
8.093870936767303 4.967161818836016 -0.579790013262423
8.781814732762079 3.989215631022844 -2.407699354839389
9.167261115401793 2.626569457141389 -4.318416409987349
7.706655849337965 0.891213322102979 -5.175074968796971
6.522860951398685 -0.844147466193347 -5.263909775430685
4.550799191322384 -2.488598276365708 -5.089299619683402
5.940369226801412 2.483998691615064 -0.922690569640594
5.993353651173016 1.775235274344146 -1.915878311670918
5.934301526664301 0.873270071280739 -2.823757716004021
5.255690106744483 -0.399539406895547 -3.110210846715852
4.211579337844920 -1.523914543531967 -3.155410898498583
8.007843790072400 4.731970838998212 -0.118339372304498
8.731413342850589 4.022736001288935 -2.037421418621366
9.299920482593544 3.155655417943434 -3.964363709043126
8.234376769348222 1.203098825344636 -4.829351321694428
6.651196829743933 -0.583584383316712 -5.416903141035208
5.130382283003730 -2.294646687682742 -5.168970524502059
5.800043880373172 2.557822209944430 -0.542234677967129
6.273443581248015 1.738804809976990 -1.726743854008430
6.240443668390609 1.254108982263745 -2.657230578002053
5.261731900996169 0.080145244291466 -3.048923583210653
4.201242580460220 -0.941577462102035 -3.091492462974736
3.344679846033683 -2.144290044856588 -2.857333612237134
8.347987799741308 4.186659130117991 -1.673241034601194
9.278529322712911 3.326107675437063 -3.325357346120621
8.668015642808012 1.673221054133364 -4.799009147292154
6.995739267453707 -0.060336612646507 -5.364483465494858
5.274243094678035 -2.089700769722210 -5.159593452071843
5.690597535768946 2.410215721681427 -0.300478735651358
6.159499632377234 2.017283008049375 -1.548263864887789
6.401914041057922 1.358732959272237 -2.612844537461125
5.429688927920139 0.104934183597943 -3.124277532320738
4.632886364090556 -0.945954508615879 -3.209101015833822
