# This PCD file was generated using the MATLAB® pcwrite function
# from Computer Vision Toolbox®.
# .PCD v.7 - Point Cloud Data file format
VERSION .7
FIELDS x y z rgb normal_x normal_y normal_z
SIZE 4 4 4 4 4 4 4
TYPE F F F F F F F
COUNT 1 1 1 1 1 1 1
WIDTH 670
HEIGHT 1
VIEWPOINT 0 0 0 1 0 0 0
POINTS 670
DATA ascii
0.192993 0.034760 -0.428467 6.528649545e-41 0.000000 0.000000 0.000000
0.195068 0.034760 -0.428467 6.528649545e-41 0.000000 0.000000 0.000000
0.197021 0.034760 -0.428467 6.528649545e-41 0.000000 0.000000 0.000000
0.199463 0.034821 -0.429443 6.564522786e-41 0.000000 0.000000 0.000000
0.201538 0.034821 -0.429443 6.564522786e-41 0.000000 0.000000 0.000000
0.203979 0.034912 -0.430420 6.564522786e-41 0.000000 0.000000 0.000000
0.205933 0.034912 -0.430420 6.564522786e-41 0.000000 0.000000 0.000000
0.208374 0.034973 -0.431396 6.600396027e-41 0.000000 0.000000 0.000000
0.210938 0.035065 -0.432373 6.600396027e-41 0.000000 0.000000 0.000000
0.213379 0.035126 -0.433350 6.600396027e-41 0.000000 0.000000 0.000000
0.215820 0.035217 -0.434326 6.636269267e-41 0.000000 0.000000 0.000000
0.218384 0.035278 -0.435303 6.636269267e-41 0.000000 0.000000 0.000000
0.220947 0.035370 -0.436035 6.672142508e-41 0.000000 0.000000 0.000000
0.223389 0.035431 -0.437012 6.672142508e-41 0.000000 0.000000 0.000000
0.225952 0.035522 -0.437988 6.672142508e-41 0.000000 0.000000 0.000000
0.166992 0.036194 -0.473389 7.210241118e-41 0.000000 0.000000 0.000000
0.169189 0.036194 -0.473389 7.246114359e-41 0.000000 0.000000 0.000000
0.171997 0.036346 -0.475342 7.246114359e-41 0.000000 0.000000 0.000000
0.166260 0.034637 -0.453369 6.923255193e-41 0.000000 0.000000 0.000000
0.167603 0.034515 -0.451416 6.887381952e-41 0.000000 0.000000 0.000000
0.168579 0.034271 -0.448486 6.851508711e-41 0.000000 0.000000 0.000000
0.170044 0.034149 -0.446777 6.815635471e-41 0.000000 0.000000 0.000000
0.171387 0.033997 -0.444824 6.779762230e-41 0.000000 0.000000 0.000000
0.172607 0.033844 -0.442871 6.779762230e-41 0.000000 0.000000 0.000000
0.174316 0.033783 -0.441895 6.743888989e-41 0.000000 0.000000 0.000000
0.175659 0.033630 -0.439941 6.708015749e-41 0.000000 0.000000 0.000000
0.176880 0.033478 -0.437988 6.672142508e-41 0.000000 0.000000 0.000000
0.178589 0.033417 -0.437012 6.672142508e-41 0.000000 0.000000 0.000000
0.180176 0.033325 -0.436035 6.672142508e-41 0.000000 0.000000 0.000000
0.181396 0.033173 -0.434326 6.636269267e-41 0.000000 0.000000 0.000000
0.183105 0.033112 -0.433350 6.600396027e-41 0.000000 0.000000 0.000000
0.184692 0.033051 -0.432373 6.600396027e-41 0.000000 0.000000 0.000000
0.186279 0.032959 -0.431396 6.600396027e-41 0.000000 0.000000 0.000000
0.188354 0.032959 -0.431396 6.600396027e-41 0.000000 0.000000 0.000000
0.189941 0.032898 -0.430420 6.564522786e-41 0.000000 0.000000 0.000000
0.191895 0.032898 -0.430420 6.564522786e-41 0.000000 0.000000 0.000000
0.193848 0.032898 -0.430420 6.564522786e-41 0.000000 0.000000 0.000000
0.195923 0.032898 -0.430420 6.564522786e-41 0.000000 0.000000 0.000000
0.197876 0.032898 -0.430420 6.564522786e-41 0.000000 0.000000 0.000000
0.199951 0.032898 -0.430420 6.564522786e-41 0.000000 0.000000 0.000000
0.202393 0.032959 -0.431396 6.600396027e-41 0.000000 0.000000 0.000000
0.204346 0.032959 -0.431396 6.600396027e-41 0.000000 0.000000 0.000000
0.206909 0.033051 -0.432373 6.600396027e-41 0.000000 0.000000 0.000000
0.209351 0.033112 -0.433350 6.600396027e-41 0.000000 0.000000 0.000000
0.211304 0.033112 -0.433350 6.600396027e-41 0.000000 0.000000 0.000000
0.213867 0.033173 -0.434326 6.636269267e-41 0.000000 0.000000 0.000000
0.216309 0.033264 -0.435303 6.636269267e-41 0.000000 0.000000 0.000000
0.218872 0.033325 -0.436035 6.672142508e-41 0.000000 0.000000 0.000000
0.221436 0.033417 -0.437012 6.672142508e-41 0.000000 0.000000 0.000000
0.224365 0.033539 -0.438965 6.708015749e-41 0.000000 0.000000 0.000000
0.226440 0.033539 -0.438965 6.708015749e-41 0.000000 0.000000 0.000000
0.169800 0.034119 -0.475342 7.210241118e-41 0.000000 0.000000 0.000000
0.171387 0.033966 -0.473389 7.210241118e-41 0.000000 0.000000 0.000000
0.166260 0.032532 -0.453369 6.923255193e-41 0.000000 0.000000 0.000000
0.167969 0.032471 -0.452393 6.887381952e-41 0.000000 0.000000 0.000000
0.169312 0.032318 -0.450439 6.887381952e-41 0.000000 0.000000 0.000000
0.170776 0.032196 -0.448486 6.851508711e-41 0.000000 0.000000 0.000000
0.172119 0.032043 -0.446777 6.815635471e-41 0.000000 0.000000 0.000000
0.173462 0.031921 -0.444824 6.779762230e-41 0.000000 0.000000 0.000000
0.175049 0.031860 -0.443848 6.779762230e-41 0.000000 0.000000 0.000000
0.176392 0.031708 -0.441895 6.743888989e-41 0.000000 0.000000 0.000000
0.177734 0.031586 -0.439941 6.708015749e-41 0.000000 0.000000 0.000000
0.179321 0.031494 -0.438965 6.708015749e-41 0.000000 0.000000 0.000000
0.180664 0.031372 -0.437012 6.672142508e-41 0.000000 0.000000 0.000000
0.182251 0.031311 -0.436035 6.672142508e-41 0.000000 0.000000 0.000000
0.183838 0.031235 -0.435303 6.636269267e-41 0.000000 0.000000 0.000000
0.185547 0.031174 -0.434326 6.636269267e-41 0.000000 0.000000 0.000000
0.187134 0.031097 -0.433350 6.600396027e-41 0.000000 0.000000 0.000000
0.188721 0.031036 -0.432373 6.600396027e-41 0.000000 0.000000 0.000000
0.190796 0.031036 -0.432373 6.600396027e-41 0.000000 0.000000 0.000000
0.192383 0.030960 -0.431396 6.600396027e-41 0.000000 0.000000 0.000000
0.194336 0.030960 -0.431396 6.600396027e-41 0.000000 0.000000 0.000000
0.196289 0.030960 -0.431396 6.600396027e-41 0.000000 0.000000 0.000000
0.198364 0.030960 -0.431396 6.600396027e-41 0.000000 0.000000 0.000000
0.200806 0.031036 -0.432373 6.600396027e-41 0.000000 0.000000 0.000000
0.202881 0.031036 -0.432373 6.600396027e-41 0.000000 0.000000 0.000000
0.205322 0.031097 -0.433350 6.600396027e-41 0.000000 0.000000 0.000000
0.207275 0.031097 -0.433350 6.600396027e-41 0.000000 0.000000 0.000000
0.209839 0.031174 -0.434326 6.636269267e-41 0.000000 0.000000 0.000000
0.212280 0.031235 -0.435303 6.636269267e-41 0.000000 0.000000 0.000000
0.214844 0.031311 -0.436035 6.672142508e-41 0.000000 0.000000 0.000000
0.217285 0.031372 -0.437012 6.672142508e-41 0.000000 0.000000 0.000000
0.219849 0.031433 -0.437988 6.672142508e-41 0.000000 0.000000 0.000000
0.222290 0.031494 -0.438965 6.708015749e-41 0.000000 0.000000 0.000000
0.224854 0.031586 -0.439941 6.708015749e-41 0.000000 0.000000 0.000000
0.226929 0.031586 -0.439941 6.708015749e-41 0.000000 0.000000 0.000000
0.169434 0.031830 -0.474365 7.246114359e-41 0.000000 0.000000 0.000000
0.171997 0.031891 -0.475342 7.246114359e-41 0.000000 0.000000 0.000000
0.166870 0.030563 -0.455322 6.959128434e-41 0.000000 0.000000 0.000000
0.168335 0.030426 -0.453369 6.923255193e-41 0.000000 0.000000 0.000000
0.169678 0.030304 -0.451416 6.887381952e-41 0.000000 0.000000 0.000000
0.171509 0.030243 -0.450439 6.887381952e-41 0.000000 0.000000 0.000000
0.172852 0.030106 -0.448486 6.851508711e-41 0.000000 0.000000 0.000000
0.174194 0.029984 -0.446777 6.815635471e-41 0.000000 0.000000 0.000000
0.175537 0.029846 -0.444824 6.779762230e-41 0.000000 0.000000 0.000000
0.177124 0.029785 -0.443848 6.779762230e-41 0.000000 0.000000 0.000000
0.178467 0.029663 -0.441895 6.743888989e-41 0.000000 0.000000 0.000000
0.180176 0.029602 -0.440918 6.743888989e-41 0.000000 0.000000 0.000000
0.181396 0.029465 -0.438965 6.708015749e-41 0.000000 0.000000 0.000000
0.183105 0.029404 -0.437988 6.672142508e-41 0.000000 0.000000 0.000000
0.184692 0.029343 -0.437012 6.672142508e-41 0.000000 0.000000 0.000000
0.186279 0.029266 -0.436035 6.672142508e-41 0.000000 0.000000 0.000000
0.187988 0.029205 -0.435303 6.636269267e-41 0.000000 0.000000 0.000000
0.189575 0.029144 -0.434326 6.636269267e-41 0.000000 0.000000 0.000000
0.191162 0.029083 -0.433350 6.600396027e-41 0.000000 0.000000 0.000000
0.193237 0.029083 -0.433350 6.600396027e-41 0.000000 0.000000 0.000000
0.195190 0.029083 -0.433350 6.600396027e-41 0.000000 0.000000 0.000000
0.197266 0.029083 -0.433350 6.600396027e-41 0.000000 0.000000 0.000000
0.199219 0.029083 -0.433350 6.600396027e-41 0.000000 0.000000 0.000000
0.201294 0.029083 -0.433350 6.600396027e-41 0.000000 0.000000 0.000000
0.203735 0.029144 -0.434326 6.636269267e-41 0.000000 0.000000 0.000000
0.205811 0.029144 -0.434326 6.636269267e-41 0.000000 0.000000 0.000000
0.208252 0.029205 -0.435303 6.636269267e-41 0.000000 0.000000 0.000000
0.210205 0.029205 -0.435303 6.636269267e-41 0.000000 0.000000 0.000000
0.212769 0.029266 -0.436035 6.672142508e-41 0.000000 0.000000 0.000000
0.215210 0.029343 -0.437012 6.672142508e-41 0.000000 0.000000 0.000000
0.217773 0.029404 -0.437988 6.672142508e-41 0.000000 0.000000 0.000000
0.220337 0.029465 -0.438965 6.708015749e-41 0.000000 0.000000 0.000000
0.222778 0.029526 -0.439941 6.708015749e-41 0.000000 0.000000 0.000000
0.225342 0.029602 -0.440918 6.743888989e-41 0.000000 0.000000 0.000000
0.227417 0.029602 -0.440918 6.743888989e-41 0.000000 0.000000 0.000000
0.230469 0.029724 -0.442871 6.779762230e-41 0.000000 0.000000 0.000000
0.166870 0.028442 -0.455322 6.959128434e-41 0.000000 0.000000 0.000000
0.168701 0.028381 -0.454346 6.923255193e-41 0.000000 0.000000 0.000000
0.170410 0.028320 -0.453369 6.923255193e-41 0.000000 0.000000 0.000000
0.171753 0.028198 -0.451416 6.887381952e-41 0.000000 0.000000 0.000000
0.173584 0.028137 -0.450439 6.887381952e-41 0.000000 0.000000 0.000000
0.174927 0.028015 -0.448486 6.851508711e-41 0.000000 0.000000 0.000000
0.176270 0.027893 -0.446777 6.815635471e-41 0.000000 0.000000 0.000000
0.177612 0.027771 -0.444824 6.779762230e-41 0.000000 0.000000 0.000000
0.179199 0.027725 -0.443848 6.779762230e-41 0.000000 0.000000 0.000000
0.180542 0.027603 -0.441895 6.743888989e-41 0.000000 0.000000 0.000000
0.182251 0.027542 -0.440918 6.743888989e-41 0.000000 0.000000 0.000000
0.183472 0.027420 -0.438965 6.708015749e-41 0.000000 0.000000 0.000000
0.185059 0.027359 -0.437988 6.672142508e-41 0.000000 0.000000 0.000000
0.186768 0.027298 -0.437012 6.672142508e-41 0.000000 0.000000 0.000000
0.188354 0.027237 -0.436035 6.672142508e-41 0.000000 0.000000 0.000000
0.189941 0.027176 -0.435303 6.636269267e-41 0.000000 0.000000 0.000000
0.192017 0.027176 -0.435303 6.636269267e-41 0.000000 0.000000 0.000000
0.193604 0.027115 -0.434326 6.636269267e-41 0.000000 0.000000 0.000000
0.195679 0.027115 -0.434326 6.636269267e-41 0.000000 0.000000 0.000000
0.197632 0.027115 -0.434326 6.636269267e-41 0.000000 0.000000 0.000000
0.199707 0.027115 -0.434326 6.636269267e-41 0.000000 0.000000 0.000000
0.202148 0.027176 -0.435303 6.636269267e-41 0.000000 0.000000 0.000000
0.204224 0.027176 -0.435303 6.636269267e-41 0.000000 0.000000 0.000000
0.206177 0.027176 -0.435303 6.636269267e-41 0.000000 0.000000 0.000000
0.208740 0.027237 -0.436035 6.672142508e-41 0.000000 0.000000 0.000000
0.211182 0.027298 -0.437012 6.672142508e-41 0.000000 0.000000 0.000000
0.213745 0.027359 -0.437988 6.672142508e-41 0.000000 0.000000 0.000000
0.216187 0.027420 -0.438965 6.708015749e-41 0.000000 0.000000 0.000000
0.218750 0.027481 -0.439941 6.708015749e-41 0.000000 0.000000 0.000000
0.221313 0.027542 -0.440918 6.743888989e-41 0.000000 0.000000 0.000000
0.223755 0.027603 -0.441895 6.743888989e-41 0.000000 0.000000 0.000000
0.225830 0.027603 -0.441895 6.743888989e-41 0.000000 0.000000 0.000000
0.228394 0.027664 -0.442871 6.779762230e-41 0.000000 0.000000 0.000000
0.230957 0.027725 -0.443848 6.779762230e-41 0.000000 0.000000 0.000000
0.167236 0.026367 -0.456299 6.959128434e-41 0.000000 0.000000 0.000000
0.169067 0.026306 -0.455322 6.959128434e-41 0.000000 0.000000 0.000000
0.170776 0.026260 -0.454346 6.923255193e-41 0.000000 0.000000 0.000000
0.172485 0.026199 -0.453369 6.923255193e-41 0.000000 0.000000 0.000000
0.173950 0.026093 -0.451416 6.887381952e-41 0.000000 0.000000 0.000000
0.175293 0.025986 -0.449463 6.851508711e-41 0.000000 0.000000 0.000000
0.177002 0.025925 -0.448486 6.851508711e-41 0.000000 0.000000 0.000000
0.178345 0.025818 -0.446777 6.815635471e-41 0.000000 0.000000 0.000000
0.179688 0.025711 -0.444824 6.779762230e-41 0.000000 0.000000 0.000000
0.181274 0.025650 -0.443848 6.779762230e-41 0.000000 0.000000 0.000000
0.182617 0.025543 -0.441895 6.743888989e-41 0.000000 0.000000 0.000000
0.184204 0.025482 -0.440918 6.743888989e-41 0.000000 0.000000 0.000000
0.185913 0.025421 -0.439941 6.708015749e-41 0.000000 0.000000 0.000000
0.187500 0.025375 -0.438965 6.708015749e-41 0.000000 0.000000 0.000000
0.189209 0.025314 -0.437988 6.672142508e-41 0.000000 0.000000 0.000000
0.190796 0.025269 -0.437012 6.672142508e-41 0.000000 0.000000 0.000000
0.192383 0.025208 -0.436035 6.672142508e-41 0.000000 0.000000 0.000000
0.194458 0.025208 -0.436035 6.672142508e-41 0.000000 0.000000 0.000000
0.196533 0.025208 -0.436035 6.672142508e-41 0.000000 0.000000 0.000000
0.198486 0.025208 -0.436035 6.672142508e-41 0.000000 0.000000 0.000000
0.200562 0.025208 -0.436035 6.672142508e-41 0.000000 0.000000 0.000000
0.202637 0.025208 -0.436035 6.672142508e-41 0.000000 0.000000 0.000000
0.204590 0.025208 -0.436035 6.672142508e-41 0.000000 0.000000 0.000000
0.207153 0.025269 -0.437012 6.672142508e-41 0.000000 0.000000 0.000000
0.209106 0.025269 -0.437012 6.672142508e-41 0.000000 0.000000 0.000000
0.211670 0.025314 -0.437988 6.672142508e-41 0.000000 0.000000 0.000000
0.214111 0.025375 -0.438965 6.708015749e-41 0.000000 0.000000 0.000000
0.216675 0.025421 -0.439941 6.708015749e-41 0.000000 0.000000 0.000000
0.219238 0.025482 -0.440918 6.743888989e-41 0.000000 0.000000 0.000000
0.221680 0.025543 -0.441895 6.743888989e-41 0.000000 0.000000 0.000000
0.224243 0.025589 -0.442871 6.779762230e-41 0.000000 0.000000 0.000000
0.226807 0.025650 -0.443848 6.779762230e-41 0.000000 0.000000 0.000000
0.228882 0.025650 -0.443848 6.779762230e-41 0.000000 0.000000 0.000000
0.231445 0.025711 -0.444824 6.779762230e-41 0.000000 0.000000 0.000000
0.169678 0.024292 -0.457275 6.959128434e-41 0.000000 0.000000 0.000000
0.171509 0.024246 -0.456299 6.959128434e-41 0.000000 0.000000 0.000000
0.173218 0.024185 -0.455322 6.959128434e-41 0.000000 0.000000 0.000000
0.174683 0.024094 -0.453369 6.923255193e-41 0.000000 0.000000 0.000000
0.176025 0.023987 -0.451416 6.887381952e-41 0.000000 0.000000 0.000000
0.177368 0.023880 -0.449463 6.851508711e-41 0.000000 0.000000 0.000000
0.179077 0.023834 -0.448486 6.851508711e-41 0.000000 0.000000 0.000000
0.180420 0.023727 -0.446777 6.815635471e-41 0.000000 0.000000 0.000000
0.181763 0.023636 -0.444824 6.779762230e-41 0.000000 0.000000 0.000000
0.183350 0.023575 -0.443848 6.779762230e-41 0.000000 0.000000 0.000000
0.185059 0.023529 -0.442871 6.779762230e-41 0.000000 0.000000 0.000000
0.186279 0.023422 -0.440918 6.743888989e-41 0.000000 0.000000 0.000000
0.187988 0.023376 -0.439941 6.708015749e-41 0.000000 0.000000 0.000000
0.189575 0.023331 -0.438965 6.708015749e-41 0.000000 0.000000 0.000000
0.191284 0.023270 -0.437988 6.672142508e-41 0.000000 0.000000 0.000000
0.193237 0.023270 -0.437988 6.672142508e-41 0.000000 0.000000 0.000000
0.194824 0.023224 -0.437012 6.672142508e-41 0.000000 0.000000 0.000000
0.196899 0.023224 -0.437012 6.672142508e-41 0.000000 0.000000 0.000000
0.198975 0.023224 -0.437012 6.672142508e-41 0.000000 0.000000 0.000000
0.201050 0.023224 -0.437012 6.672142508e-41 0.000000 0.000000 0.000000
0.203003 0.023224 -0.437012 6.672142508e-41 0.000000 0.000000 0.000000
0.205566 0.023270 -0.437988 6.672142508e-41 0.000000 0.000000 0.000000
0.207520 0.023270 -0.437988 6.672142508e-41 0.000000 0.000000 0.000000
0.210083 0.023331 -0.438965 6.708015749e-41 0.000000 0.000000 0.000000
0.212158 0.023331 -0.438965 6.708015749e-41 0.000000 0.000000 0.000000
0.214600 0.023376 -0.439941 6.708015749e-41 0.000000 0.000000 0.000000
0.217163 0.023422 -0.440918 6.743888989e-41 0.000000 0.000000 0.000000
0.219727 0.023483 -0.441895 6.743888989e-41 0.000000 0.000000 0.000000
0.222168 0.023529 -0.442871 6.779762230e-41 0.000000 0.000000 0.000000
0.224731 0.023575 -0.443848 6.779762230e-41 0.000000 0.000000 0.000000
0.227295 0.023636 -0.444824 6.779762230e-41 0.000000 0.000000 0.000000
0.229370 0.023636 -0.444824 6.779762230e-41 0.000000 0.000000 0.000000
0.231934 0.023682 -0.445801 6.815635471e-41 0.000000 0.000000 0.000000
0.169678 0.022446 -0.462891 7.066748156e-41 0.000000 0.000000 0.000000
0.170410 0.022247 -0.459229 6.995001674e-41 0.000000 0.000000 0.000000
0.172241 0.022202 -0.458252 6.995001674e-41 0.000000 0.000000 0.000000
0.173950 0.022156 -0.457275 6.959128434e-41 0.000000 0.000000 0.000000
0.175415 0.022064 -0.455322 6.959128434e-41 0.000000 0.000000 0.000000
0.176758 0.021973 -0.453369 6.923255193e-41 0.000000 0.000000 0.000000
0.178101 0.021881 -0.451416 6.887381952e-41 0.000000 0.000000 0.000000
0.179443 0.021790 -0.449463 6.851508711e-41 0.000000 0.000000 0.000000
0.180786 0.021698 -0.447510 6.851508711e-41 0.000000 0.000000 0.000000
0.182495 0.021652 -0.446777 6.815635471e-41 0.000000 0.000000 0.000000
0.183838 0.021561 -0.444824 6.779762230e-41 0.000000 0.000000 0.000000
0.185425 0.021515 -0.443848 6.779762230e-41 0.000000 0.000000 0.000000
0.187134 0.021469 -0.442871 6.779762230e-41 0.000000 0.000000 0.000000
0.188721 0.021423 -0.441895 6.743888989e-41 0.000000 0.000000 0.000000
0.190430 0.021378 -0.440918 6.743888989e-41 0.000000 0.000000 0.000000
0.192017 0.021332 -0.439941 6.708015749e-41 0.000000 0.000000 0.000000
0.193726 0.021286 -0.438965 6.708015749e-41 0.000000 0.000000 0.000000
0.195679 0.021286 -0.438965 6.708015749e-41 0.000000 0.000000 0.000000
0.197754 0.021286 -0.438965 6.708015749e-41 0.000000 0.000000 0.000000
0.199341 0.021225 -0.437988 6.672142508e-41 0.000000 0.000000 0.000000
0.201416 0.021225 -0.437988 6.672142508e-41 0.000000 0.000000 0.000000
0.203979 0.021286 -0.438965 6.708015749e-41 0.000000 0.000000 0.000000
0.205933 0.021286 -0.438965 6.708015749e-41 0.000000 0.000000 0.000000
0.208008 0.021286 -0.438965 6.708015749e-41 0.000000 0.000000 0.000000
0.210571 0.021332 -0.439941 6.708015749e-41 0.000000 0.000000 0.000000
0.213013 0.021378 -0.440918 6.743888989e-41 0.000000 0.000000 0.000000
0.215576 0.021423 -0.441895 6.743888989e-41 0.000000 0.000000 0.000000
0.218140 0.021469 -0.442871 6.779762230e-41 0.000000 0.000000 0.000000
0.220581 0.021515 -0.443848 6.779762230e-41 0.000000 0.000000 0.000000
0.223145 0.021561 -0.444824 6.779762230e-41 0.000000 0.000000 0.000000
0.225708 0.021606 -0.445801 6.815635471e-41 0.000000 0.000000 0.000000
0.227783 0.021606 -0.445801 6.815635471e-41 0.000000 0.000000 0.000000
0.230347 0.021652 -0.446777 6.815635471e-41 0.000000 0.000000 0.000000
0.232422 0.021652 -0.446777 6.815635471e-41 0.000000 0.000000 0.000000
0.171509 0.020493 -0.467773 7.138494637e-41 0.000000 0.000000 0.000000
0.171509 0.020233 -0.461914 7.066748156e-41 0.000000 0.000000 0.000000
0.173340 0.020203 -0.460938 7.030874915e-41 0.000000 0.000000 0.000000
0.174683 0.020111 -0.459229 6.995001674e-41 0.000000 0.000000 0.000000
0.176147 0.020035 -0.457275 6.959128434e-41 0.000000 0.000000 0.000000
0.177490 0.019943 -0.455322 6.959128434e-41 0.000000 0.000000 0.000000
0.178833 0.019867 -0.453369 6.923255193e-41 0.000000 0.000000 0.000000
0.180176 0.019775 -0.451416 6.887381952e-41 0.000000 0.000000 0.000000
0.181519 0.019699 -0.449463 6.851508711e-41 0.000000 0.000000 0.000000
0.182861 0.019608 -0.447510 6.851508711e-41 0.000000 0.000000 0.000000
0.184570 0.019562 -0.446777 6.815635471e-41 0.000000 0.000000 0.000000
0.185913 0.019485 -0.444824 6.779762230e-41 0.000000 0.000000 0.000000
0.187500 0.019440 -0.443848 6.779762230e-41 0.000000 0.000000 0.000000
0.189209 0.019394 -0.442871 6.779762230e-41 0.000000 0.000000 0.000000
0.190796 0.019363 -0.441895 6.743888989e-41 0.000000 0.000000 0.000000
0.192505 0.019318 -0.440918 6.743888989e-41 0.000000 0.000000 0.000000
0.194580 0.019318 -0.440918 6.743888989e-41 0.000000 0.000000 0.000000
0.196167 0.019272 -0.439941 6.708015749e-41 0.000000 0.000000 0.000000
0.198242 0.019272 -0.439941 6.708015749e-41 0.000000 0.000000 0.000000
0.200317 0.019272 -0.439941 6.708015749e-41 0.000000 0.000000 0.000000
0.202271 0.019272 -0.439941 6.708015749e-41 0.000000 0.000000 0.000000
0.204346 0.019272 -0.439941 6.708015749e-41 0.000000 0.000000 0.000000
0.206421 0.019272 -0.439941 6.708015749e-41 0.000000 0.000000 0.000000
0.208984 0.019318 -0.440918 6.743888989e-41 0.000000 0.000000 0.000000
0.210938 0.019318 -0.440918 6.743888989e-41 0.000000 0.000000 0.000000
0.213501 0.019363 -0.441895 6.743888989e-41 0.000000 0.000000 0.000000
0.216064 0.019394 -0.442871 6.779762230e-41 0.000000 0.000000 0.000000
0.218506 0.019440 -0.443848 6.779762230e-41 0.000000 0.000000 0.000000
0.221069 0.019485 -0.444824 6.779762230e-41 0.000000 0.000000 0.000000
0.223633 0.019531 -0.445801 6.815635471e-41 0.000000 0.000000 0.000000
0.226196 0.019562 -0.446777 6.815635471e-41 0.000000 0.000000 0.000000
0.228760 0.019608 -0.447510 6.851508711e-41 0.000000 0.000000 0.000000
0.230835 0.019608 -0.447510 6.851508711e-41 0.000000 0.000000 0.000000
0.232910 0.019608 -0.447510 6.851508711e-41 0.000000 0.000000 0.000000
0.172119 0.018387 -0.469727 7.174367878e-41 0.000000 0.000000 0.000000
0.172607 0.018204 -0.464844 7.102621396e-41 0.000000 0.000000 0.000000
0.174072 0.018127 -0.462891 7.066748156e-41 0.000000 0.000000 0.000000
0.175415 0.018051 -0.460938 7.030874915e-41 0.000000 0.000000 0.000000
0.176880 0.017975 -0.459229 6.995001674e-41 0.000000 0.000000 0.000000
0.178223 0.017899 -0.457275 6.959128434e-41 0.000000 0.000000 0.000000
0.179321 0.017776 -0.454346 6.923255193e-41 0.000000 0.000000 0.000000
0.180664 0.017715 -0.452393 6.887381952e-41 0.000000 0.000000 0.000000
0.182373 0.017670 -0.451416 6.887381952e-41 0.000000 0.000000 0.000000
0.183716 0.017593 -0.449463 6.851508711e-41 0.000000 0.000000 0.000000
0.184937 0.017517 -0.447510 6.851508711e-41 0.000000 0.000000 0.000000
0.186646 0.017487 -0.446777 6.815635471e-41 0.000000 0.000000 0.000000
0.188354 0.017441 -0.445801 6.815635471e-41 0.000000 0.000000 0.000000
0.189941 0.017410 -0.444824 6.779762230e-41 0.000000 0.000000 0.000000
0.191650 0.017365 -0.443848 6.779762230e-41 0.000000 0.000000 0.000000
0.193359 0.017334 -0.442871 6.779762230e-41 0.000000 0.000000 0.000000
0.194946 0.017303 -0.441895 6.743888989e-41 0.000000 0.000000 0.000000
0.197021 0.017303 -0.441895 6.743888989e-41 0.000000 0.000000 0.000000
0.198608 0.017258 -0.440918 6.743888989e-41 0.000000 0.000000 0.000000
0.200684 0.017258 -0.440918 6.743888989e-41 0.000000 0.000000 0.000000
0.202759 0.017258 -0.440918 6.743888989e-41 0.000000 0.000000 0.000000
0.205200 0.017303 -0.441895 6.743888989e-41 0.000000 0.000000 0.000000
0.207275 0.017303 -0.441895 6.743888989e-41 0.000000 0.000000 0.000000
0.209351 0.017303 -0.441895 6.743888989e-41 0.000000 0.000000 0.000000
0.211914 0.017334 -0.442871 6.779762230e-41 0.000000 0.000000 0.000000
0.214478 0.017365 -0.443848 6.779762230e-41 0.000000 0.000000 0.000000
0.216553 0.017365 -0.443848 6.779762230e-41 0.000000 0.000000 0.000000
0.218994 0.017410 -0.444824 6.779762230e-41 0.000000 0.000000 0.000000
0.221558 0.017441 -0.445801 6.815635471e-41 0.000000 0.000000 0.000000
0.224121 0.017487 -0.446777 6.815635471e-41 0.000000 0.000000 0.000000
0.226685 0.017517 -0.447510 6.851508711e-41 0.000000 0.000000 0.000000
0.229248 0.017563 -0.448486 6.851508711e-41 0.000000 0.000000 0.000000
0.231812 0.017593 -0.449463 6.851508711e-41 0.000000 0.000000 0.000000
0.233521 0.017563 -0.448486 6.851508711e-41 0.000000 0.000000 0.000000
0.172607 0.016663 -0.482910 7.281987600e-41 0.000000 0.000000 0.000000
0.173096 0.016495 -0.478271 7.281987600e-41 0.000000 0.000000 0.000000
0.172485 0.016220 -0.470703 7.174367878e-41 0.000000 0.000000 0.000000
0.173584 0.016129 -0.467773 7.138494637e-41 0.000000 0.000000 0.000000
0.175049 0.016068 -0.465820 7.102621396e-41 0.000000 0.000000 0.000000
0.176147 0.015961 -0.462891 7.066748156e-41 0.000000 0.000000 0.000000
0.177612 0.015900 -0.460938 7.030874915e-41 0.000000 0.000000 0.000000
0.178589 0.015793 -0.458252 6.995001674e-41 0.000000 0.000000 0.000000
0.180054 0.015732 -0.456299 6.959128434e-41 0.000000 0.000000 0.000000
0.181396 0.015671 -0.454346 6.923255193e-41 0.000000 0.000000 0.000000
0.182739 0.015602 -0.452393 6.887381952e-41 0.000000 0.000000 0.000000
0.184082 0.015541 -0.450439 6.887381952e-41 0.000000 0.000000 0.000000
0.185791 0.015503 -0.449463 6.851508711e-41 0.000000 0.000000 0.000000
0.187012 0.015442 -0.447510 6.851508711e-41 0.000000 0.000000 0.000000
0.188721 0.015404 -0.446777 6.815635471e-41 0.000000 0.000000 0.000000
0.190430 0.015373 -0.445801 6.815635471e-41 0.000000 0.000000 0.000000
0.192017 0.015343 -0.444824 6.779762230e-41 0.000000 0.000000 0.000000
0.193726 0.015305 -0.443848 6.779762230e-41 0.000000 0.000000 0.000000
0.195801 0.015305 -0.443848 6.779762230e-41 0.000000 0.000000 0.000000
0.197388 0.015274 -0.442871 6.779762230e-41 0.000000 0.000000 0.000000
0.199463 0.015274 -0.442871 6.779762230e-41 0.000000 0.000000 0.000000
0.201538 0.015274 -0.442871 6.779762230e-41 0.000000 0.000000 0.000000
0.203613 0.015274 -0.442871 6.779762230e-41 0.000000 0.000000 0.000000
0.205688 0.015274 -0.442871 6.779762230e-41 0.000000 0.000000 0.000000
0.207764 0.015274 -0.442871 6.779762230e-41 0.000000 0.000000 0.000000
0.210327 0.015305 -0.443848 6.779762230e-41 0.000000 0.000000 0.000000
0.212402 0.015305 -0.443848 6.779762230e-41 0.000000 0.000000 0.000000
0.214844 0.015343 -0.444824 6.779762230e-41 0.000000 0.000000 0.000000
0.217407 0.015373 -0.445801 6.815635471e-41 0.000000 0.000000 0.000000
0.219971 0.015404 -0.446777 6.815635471e-41 0.000000 0.000000 0.000000
0.222534 0.015442 -0.447510 6.851508711e-41 0.000000 0.000000 0.000000
0.225098 0.015472 -0.448486 6.851508711e-41 0.000000 0.000000 0.000000
0.227661 0.015503 -0.449463 6.851508711e-41 0.000000 0.000000 0.000000
0.230225 0.015541 -0.450439 6.887381952e-41 0.000000 0.000000 0.000000
0.232422 0.015541 -0.450439 6.887381952e-41 0.000000 0.000000 0.000000
0.172729 0.014236 -0.477295 7.281987600e-41 0.000000 0.000000 0.000000
0.173218 0.014091 -0.472412 7.210241118e-41 0.000000 0.000000 0.000000
0.174316 0.014008 -0.469727 7.174367878e-41 0.000000 0.000000 0.000000
0.175415 0.013924 -0.466797 7.138494637e-41 0.000000 0.000000 0.000000
0.176880 0.013863 -0.464844 7.102621396e-41 0.000000 0.000000 0.000000
0.178345 0.013809 -0.462891 7.066748156e-41 0.000000 0.000000 0.000000
0.179321 0.013725 -0.459961 7.030874915e-41 0.000000 0.000000 0.000000
0.180786 0.013664 -0.458252 6.995001674e-41 0.000000 0.000000 0.000000
0.182129 0.013611 -0.456299 6.959128434e-41 0.000000 0.000000 0.000000
0.183472 0.013550 -0.454346 6.923255193e-41 0.000000 0.000000 0.000000
0.184814 0.013496 -0.452393 6.887381952e-41 0.000000 0.000000 0.000000
0.186157 0.013435 -0.450439 6.887381952e-41 0.000000 0.000000 0.000000
0.187866 0.013405 -0.449463 6.851508711e-41 0.000000 0.000000 0.000000
0.189575 0.013382 -0.448486 6.851508711e-41 0.000000 0.000000 0.000000
0.190796 0.013321 -0.446777 6.815635471e-41 0.000000 0.000000 0.000000
0.192871 0.013321 -0.446777 6.815635471e-41 0.000000 0.000000 0.000000
0.194580 0.013298 -0.445801 6.815635471e-41 0.000000 0.000000 0.000000
0.196167 0.013268 -0.444824 6.779762230e-41 0.000000 0.000000 0.000000
0.198242 0.013268 -0.444824 6.779762230e-41 0.000000 0.000000 0.000000
0.199951 0.013237 -0.443848 6.779762230e-41 0.000000 0.000000 0.000000
0.202026 0.013237 -0.443848 6.779762230e-41 0.000000 0.000000 0.000000
0.204102 0.013237 -0.443848 6.779762230e-41 0.000000 0.000000 0.000000
0.206177 0.013237 -0.443848 6.779762230e-41 0.000000 0.000000 0.000000
0.208618 0.013268 -0.444824 6.779762230e-41 0.000000 0.000000 0.000000
0.210693 0.013268 -0.444824 6.779762230e-41 0.000000 0.000000 0.000000
0.213257 0.013298 -0.445801 6.815635471e-41 0.000000 0.000000 0.000000
0.215820 0.013321 -0.446777 6.815635471e-41 0.000000 0.000000 0.000000
0.217896 0.013321 -0.446777 6.815635471e-41 0.000000 0.000000 0.000000
0.220459 0.013351 -0.447510 6.851508711e-41 0.000000 0.000000 0.000000
0.223511 0.013405 -0.449463 6.851508711e-41 0.000000 0.000000 0.000000
0.226074 0.013435 -0.450439 6.887381952e-41 0.000000 0.000000 0.000000
0.228638 0.013466 -0.451416 6.887381952e-41 0.000000 0.000000 0.000000
0.231201 0.013496 -0.452393 6.887381952e-41 0.000000 0.000000 0.000000
0.233887 0.013519 -0.453369 6.923255193e-41 0.000000 0.000000 0.000000
0.173096 0.012032 -0.478271 0.000000000e+00 0.000000 0.000000 0.000000
0.173218 0.011894 -0.472412 0.000000000e+00 0.000000 0.000000 0.000000
0.174316 0.011818 -0.469727 7.210241118e-41 0.000000 0.000000 0.000000
0.176147 0.011795 -0.468750 7.174367878e-41 0.000000 0.000000 0.000000
0.177612 0.011749 -0.466797 7.138494637e-41 0.000000 0.000000 0.000000
0.178711 0.011673 -0.463867 7.102621396e-41 0.000000 0.000000 0.000000
0.180176 0.011627 -0.461914 7.066748156e-41 0.000000 0.000000 0.000000
0.181519 0.011574 -0.459961 7.030874915e-41 0.000000 0.000000 0.000000
0.182495 0.011505 -0.457275 6.995001674e-41 0.000000 0.000000 0.000000
0.183838 0.011459 -0.455322 6.959128434e-41 0.000000 0.000000 0.000000
0.185181 0.011406 -0.453369 6.959128434e-41 0.000000 0.000000 0.000000
0.186890 0.011383 -0.452393 6.923255193e-41 0.000000 0.000000 0.000000
0.188232 0.011337 -0.450439 6.887381952e-41 0.000000 0.000000 0.000000
0.189941 0.011314 -0.449463 6.887381952e-41 0.000000 0.000000 0.000000
0.191650 0.011292 -0.448486 6.887381952e-41 0.000000 0.000000 0.000000
0.193359 0.011261 -0.447510 6.851508711e-41 0.000000 0.000000 0.000000
0.194946 0.011238 -0.446777 6.851508711e-41 0.000000 0.000000 0.000000
0.197021 0.011238 -0.446777 6.851508711e-41 0.000000 0.000000 0.000000
0.198730 0.011215 -0.445801 6.851508711e-41 0.000000 0.000000 0.000000
0.200806 0.011215 -0.445801 6.815635471e-41 0.000000 0.000000 0.000000
0.202881 0.011215 -0.445801 6.815635471e-41 0.000000 0.000000 0.000000
0.204956 0.011215 -0.445801 6.815635471e-41 0.000000 0.000000 0.000000
0.207031 0.011215 -0.445801 6.815635471e-41 0.000000 0.000000 0.000000
0.209106 0.011215 -0.445801 6.851508711e-41 0.000000 0.000000 0.000000
0.211670 0.011238 -0.446777 6.851508711e-41 0.000000 0.000000 0.000000
0.213745 0.011238 -0.446777 6.851508711e-41 0.000000 0.000000 0.000000
0.216309 0.011261 -0.447510 6.851508711e-41 0.000000 0.000000 0.000000
0.218872 0.011292 -0.448486 6.887381952e-41 0.000000 0.000000 0.000000
0.221436 0.011314 -0.449463 6.887381952e-41 0.000000 0.000000 0.000000
0.223999 0.011337 -0.450439 6.887381952e-41 0.000000 0.000000 0.000000
0.226562 0.011360 -0.451416 6.923255193e-41 0.000000 0.000000 0.000000
0.229614 0.011406 -0.453369 6.959128434e-41 0.000000 0.000000 0.000000
0.232178 0.011436 -0.454346 6.959128434e-41 0.000000 0.000000 0.000000
0.234863 0.011459 -0.455322 6.959128434e-41 0.000000 0.000000 0.000000
0.238892 0.011551 -0.459229 7.030874915e-41 0.000000 0.000000 0.000000
0.175049 0.009666 -0.471436 7.210241118e-41 0.000000 0.000000 0.000000
0.176514 0.009628 -0.469727 7.174367878e-41 0.000000 0.000000 0.000000
0.177979 0.009590 -0.467773 7.138494637e-41 0.000000 0.000000 0.000000
0.179443 0.009552 -0.465820 7.102621396e-41 0.000000 0.000000 0.000000
0.180908 0.009514 -0.463867 7.066748156e-41 0.000000 0.000000 0.000000
0.181885 0.009453 -0.460938 7.030874915e-41 0.000000 0.000000 0.000000
0.183350 0.009415 -0.459229 6.995001674e-41 0.000000 0.000000 0.000000
0.184692 0.009377 -0.457275 6.959128434e-41 0.000000 0.000000 0.000000
0.186035 0.009331 -0.455322 6.959128434e-41 0.000000 0.000000 0.000000
0.187378 0.009293 -0.453369 6.923255193e-41 0.000000 0.000000 0.000000
0.189087 0.009277 -0.452393 6.887381952e-41 0.000000 0.000000 0.000000
0.190796 0.009254 -0.451416 6.887381952e-41 0.000000 0.000000 0.000000
0.192505 0.009239 -0.450439 6.887381952e-41 0.000000 0.000000 0.000000
0.194092 0.009216 -0.449463 6.851508711e-41 0.000000 0.000000 0.000000
0.195801 0.009193 -0.448486 6.851508711e-41 0.000000 0.000000 0.000000
0.197510 0.009178 -0.447510 6.851508711e-41 0.000000 0.000000 0.000000
0.199585 0.009178 -0.447510 6.851508711e-41 0.000000 0.000000 0.000000
0.201172 0.009155 -0.446777 6.815635471e-41 0.000000 0.000000 0.000000
0.203369 0.009155 -0.446777 6.815635471e-41 0.000000 0.000000 0.000000
0.205444 0.009155 -0.446777 6.815635471e-41 0.000000 0.000000 0.000000
0.207520 0.009155 -0.446777 6.815635471e-41 0.000000 0.000000 0.000000
0.209961 0.009178 -0.447510 6.851508711e-41 0.000000 0.000000 0.000000
0.212158 0.009178 -0.447510 6.851508711e-41 0.000000 0.000000 0.000000
0.214600 0.009193 -0.448486 6.851508711e-41 0.000000 0.000000 0.000000
0.217163 0.009216 -0.449463 6.851508711e-41 0.000000 0.000000 0.000000
0.219727 0.009239 -0.450439 6.887381952e-41 0.000000 0.000000 0.000000
0.222290 0.009254 -0.451416 6.887381952e-41 0.000000 0.000000 0.000000
0.224854 0.009277 -0.452393 6.887381952e-41 0.000000 0.000000 0.000000
0.227539 0.009293 -0.453369 6.923255193e-41 0.000000 0.000000 0.000000
0.230591 0.009331 -0.455322 6.959128434e-41 0.000000 0.000000 0.000000
0.233154 0.009354 -0.456299 6.959128434e-41 0.000000 0.000000 0.000000
0.235840 0.009377 -0.457275 6.959128434e-41 0.000000 0.000000 0.000000
0.239502 0.009430 -0.459961 7.030874915e-41 0.000000 0.000000 0.000000
0.174683 0.007458 -0.470703 7.174367878e-41 0.000000 0.000000 0.000000
0.176880 0.007458 -0.470703 7.174367878e-41 0.000000 0.000000 0.000000
0.178345 0.007427 -0.468750 7.138494637e-41 0.000000 0.000000 0.000000
0.179810 0.007397 -0.466797 7.138494637e-41 0.000000 0.000000 0.000000
0.181274 0.007366 -0.464844 7.102621396e-41 0.000000 0.000000 0.000000
0.182617 0.007336 -0.462891 7.066748156e-41 0.000000 0.000000 0.000000
0.184082 0.007305 -0.460938 7.030874915e-41 0.000000 0.000000 0.000000
0.185425 0.007275 -0.459229 6.995001674e-41 0.000000 0.000000 0.000000
0.186768 0.007244 -0.457275 6.959128434e-41 0.000000 0.000000 0.000000
0.188110 0.007214 -0.455322 6.959128434e-41 0.000000 0.000000 0.000000
0.189819 0.007198 -0.454346 6.923255193e-41 0.000000 0.000000 0.000000
0.191162 0.007168 -0.452393 6.887381952e-41 0.000000 0.000000 0.000000
0.192871 0.007153 -0.451416 6.887381952e-41 0.000000 0.000000 0.000000
0.194580 0.007137 -0.450439 6.887381952e-41 0.000000 0.000000 0.000000
0.196289 0.007122 -0.449463 6.851508711e-41 0.000000 0.000000 0.000000
0.198364 0.007122 -0.449463 6.851508711e-41 0.000000 0.000000 0.000000
0.199951 0.007107 -0.448486 6.851508711e-41 0.000000 0.000000 0.000000
0.202148 0.007107 -0.448486 6.851508711e-41 0.000000 0.000000 0.000000
0.204224 0.007107 -0.448486 6.851508711e-41 0.000000 0.000000 0.000000
0.206299 0.007107 -0.448486 6.851508711e-41 0.000000 0.000000 0.000000
0.208374 0.007107 -0.448486 6.851508711e-41 0.000000 0.000000 0.000000
0.210449 0.007107 -0.448486 6.851508711e-41 0.000000 0.000000 0.000000
0.213013 0.007122 -0.449463 6.851508711e-41 0.000000 0.000000 0.000000
0.215088 0.007122 -0.449463 6.851508711e-41 0.000000 0.000000 0.000000
0.217651 0.007137 -0.450439 6.887381952e-41 0.000000 0.000000 0.000000
0.220215 0.007153 -0.451416 6.887381952e-41 0.000000 0.000000 0.000000
0.222778 0.007168 -0.452393 6.887381952e-41 0.000000 0.000000 0.000000
0.225830 0.007198 -0.454346 6.923255193e-41 0.000000 0.000000 0.000000
0.228516 0.007214 -0.455322 6.959128434e-41 0.000000 0.000000 0.000000
0.231567 0.007244 -0.457275 6.959128434e-41 0.000000 0.000000 0.000000
0.234131 0.007259 -0.458252 6.995001674e-41 0.000000 0.000000 0.000000
0.236816 0.007275 -0.459229 6.995001674e-41 0.000000 0.000000 0.000000
0.239990 0.007305 -0.460938 7.030874915e-41 0.000000 0.000000 0.000000
0.177246 0.005272 -0.471436 7.210241118e-41 0.000000 0.000000 0.000000
0.178711 0.005253 -0.469727 7.174367878e-41 0.000000 0.000000 0.000000
0.180542 0.005241 -0.468750 7.138494637e-41 0.000000 0.000000 0.000000
0.182007 0.005219 -0.466797 7.138494637e-41 0.000000 0.000000 0.000000
0.183472 0.005199 -0.464844 7.102621396e-41 0.000000 0.000000 0.000000
0.184814 0.005177 -0.462891 7.066748156e-41 0.000000 0.000000 0.000000
0.186157 0.005154 -0.460938 7.030874915e-41 0.000000 0.000000 0.000000
0.187622 0.005135 -0.459229 6.995001674e-41 0.000000 0.000000 0.000000
0.188965 0.005112 -0.457275 6.959128434e-41 0.000000 0.000000 0.000000
0.190308 0.005089 -0.455322 6.959128434e-41 0.000000 0.000000 0.000000
0.192017 0.005081 -0.454346 6.923255193e-41 0.000000 0.000000 0.000000
0.193726 0.005070 -0.453369 6.923255193e-41 0.000000 0.000000 0.000000
0.195435 0.005058 -0.452393 6.887381952e-41 0.000000 0.000000 0.000000
0.197021 0.005047 -0.451416 6.887381952e-41 0.000000 0.000000 0.000000
0.198730 0.005035 -0.450439 6.887381952e-41 0.000000 0.000000 0.000000
0.200806 0.005035 -0.450439 6.887381952e-41 0.000000 0.000000 0.000000
0.203003 0.005035 -0.450439 6.887381952e-41 0.000000 0.000000 0.000000
0.204590 0.005028 -0.449463 6.851508711e-41 0.000000 0.000000 0.000000
0.206665 0.005028 -0.449463 6.851508711e-41 0.000000 0.000000 0.000000
0.208862 0.005028 -0.449463 6.851508711e-41 0.000000 0.000000 0.000000
0.211304 0.005035 -0.450439 6.887381952e-41 0.000000 0.000000 0.000000
0.213501 0.005035 -0.450439 6.887381952e-41 0.000000 0.000000 0.000000
0.216064 0.005047 -0.451416 6.887381952e-41 0.000000 0.000000 0.000000
0.218628 0.005058 -0.452393 6.887381952e-41 0.000000 0.000000 0.000000
0.221191 0.005070 -0.453369 6.923255193e-41 0.000000 0.000000 0.000000
0.223755 0.005081 -0.454346 6.923255193e-41 0.000000 0.000000 0.000000
0.226318 0.005089 -0.455322 6.959128434e-41 0.000000 0.000000 0.000000
0.229370 0.005112 -0.457275 6.959128434e-41 0.000000 0.000000 0.000000
0.232056 0.005123 -0.458252 6.995001674e-41 0.000000 0.000000 0.000000
0.235107 0.005146 -0.459961 7.030874915e-41 0.000000 0.000000 0.000000
0.237793 0.005154 -0.460938 7.030874915e-41 0.000000 0.000000 0.000000
0.240967 0.005177 -0.462891 7.066748156e-41 0.000000 0.000000 0.000000
0.175781 0.003088 -0.473389 7.210241118e-41 0.000000 0.000000 0.000000
0.177612 0.003080 -0.472412 7.210241118e-41 0.000000 0.000000 0.000000
0.179443 0.003075 -0.471436 7.210241118e-41 0.000000 0.000000 0.000000
0.181274 0.003069 -0.470703 7.174367878e-41 0.000000 0.000000 0.000000
0.182739 0.003056 -0.468750 7.138494637e-41 0.000000 0.000000 0.000000
0.184204 0.003044 -0.466797 7.138494637e-41 0.000000 0.000000 0.000000
0.185547 0.003031 -0.464844 7.102621396e-41 0.000000 0.000000 0.000000
0.187012 0.003019 -0.462891 7.066748156e-41 0.000000 0.000000 0.000000
0.188354 0.003006 -0.460938 7.030874915e-41 0.000000 0.000000 0.000000
0.189697 0.002995 -0.459229 6.995001674e-41 0.000000 0.000000 0.000000
0.191040 0.002981 -0.457275 6.959128434e-41 0.000000 0.000000 0.000000
0.192749 0.002975 -0.456299 6.959128434e-41 0.000000 0.000000 0.000000
0.194458 0.002970 -0.455322 6.959128434e-41 0.000000 0.000000 0.000000
0.196167 0.002962 -0.454346 6.923255193e-41 0.000000 0.000000 0.000000
0.197876 0.002956 -0.453369 6.923255193e-41 0.000000 0.000000 0.000000
0.199585 0.002951 -0.452393 6.887381952e-41 0.000000 0.000000 0.000000
0.201660 0.002951 -0.452393 6.887381952e-41 0.000000 0.000000 0.000000
0.203369 0.002943 -0.451416 6.887381952e-41 0.000000 0.000000 0.000000
0.205444 0.002943 -0.451416 6.887381952e-41 0.000000 0.000000 0.000000
0.207642 0.002943 -0.451416 6.887381952e-41 0.000000 0.000000 0.000000
0.209717 0.002943 -0.451416 6.887381952e-41 0.000000 0.000000 0.000000
0.212280 0.002951 -0.452393 6.887381952e-41 0.000000 0.000000 0.000000
0.214355 0.002951 -0.452393 6.887381952e-41 0.000000 0.000000 0.000000
0.216919 0.002956 -0.453369 6.923255193e-41 0.000000 0.000000 0.000000
0.218994 0.002956 -0.453369 6.923255193e-41 0.000000 0.000000 0.000000
0.221680 0.002962 -0.454346 6.923255193e-41 0.000000 0.000000 0.000000
0.224243 0.002970 -0.455322 6.959128434e-41 0.000000 0.000000 0.000000
0.227295 0.002981 -0.457275 6.959128434e-41 0.000000 0.000000 0.000000
0.229858 0.002987 -0.458252 6.995001674e-41 0.000000 0.000000 0.000000
0.233032 0.003000 -0.459961 7.030874915e-41 0.000000 0.000000 0.000000
0.236084 0.003012 -0.461914 7.066748156e-41 0.000000 0.000000 0.000000
0.238770 0.003019 -0.462891 7.066748156e-41 0.000000 0.000000 0.000000
0.241455 0.003025 -0.463867 7.066748156e-41 0.000000 0.000000 0.000000
0.245117 0.003044 -0.466797 7.138494637e-41 0.000000 0.000000 0.000000
0.177979 0.000881 -0.473389 7.210241118e-41 0.000000 0.000000 0.000000
0.179810 0.000879 -0.472412 7.210241118e-41 0.000000 0.000000 0.000000
0.181641 0.000877 -0.471436 7.210241118e-41 0.000000 0.000000 0.000000
0.183472 0.000875 -0.470703 7.174367878e-41 0.000000 0.000000 0.000000
0.184937 0.000872 -0.468750 7.138494637e-41 0.000000 0.000000 0.000000
0.186401 0.000868 -0.466797 7.138494637e-41 0.000000 0.000000 0.000000
0.187744 0.000865 -0.464844 7.102621396e-41 0.000000 0.000000 0.000000
0.189087 0.000861 -0.462891 7.066748156e-41 0.000000 0.000000 0.000000
0.190552 0.000857 -0.460938 7.030874915e-41 0.000000 0.000000 0.000000
0.191895 0.000854 -0.459229 6.995001674e-41 0.000000 0.000000 0.000000
0.193604 0.000852 -0.458252 6.995001674e-41 0.000000 0.000000 0.000000
0.194946 0.000849 -0.456299 6.959128434e-41 0.000000 0.000000 0.000000
0.196655 0.000847 -0.455322 6.959128434e-41 0.000000 0.000000 0.000000
0.198730 0.000847 -0.455322 6.959128434e-41 0.000000 0.000000 0.000000
0.200439 0.000845 -0.454346 6.923255193e-41 0.000000 0.000000 0.000000
0.202515 0.000845 -0.454346 6.923255193e-41 0.000000 0.000000 0.000000
0.204224 0.000844 -0.453369 6.923255193e-41 0.000000 0.000000 0.000000
0.206421 0.000844 -0.453369 6.923255193e-41 0.000000 0.000000 0.000000
0.208496 0.000844 -0.453369 6.923255193e-41 0.000000 0.000000 0.000000
0.210571 0.000844 -0.453369 6.923255193e-41 0.000000 0.000000 0.000000
0.212646 0.000844 -0.453369 6.923255193e-41 0.000000 0.000000 0.000000
0.215332 0.000845 -0.454346 6.923255193e-41 0.000000 0.000000 0.000000
0.217407 0.000845 -0.454346 6.923255193e-41 0.000000 0.000000 0.000000
0.219971 0.000847 -0.455322 6.959128434e-41 0.000000 0.000000 0.000000
0.222534 0.000849 -0.456299 6.959128434e-41 0.000000 0.000000 0.000000
0.225098 0.000850 -0.457275 6.959128434e-41 0.000000 0.000000 0.000000
0.228271 0.000854 -0.459229 6.995001674e-41 0.000000 0.000000 0.000000
0.230835 0.000856 -0.459961 7.030874915e-41 0.000000 0.000000 0.000000
0.234009 0.000859 -0.461914 7.066748156e-41 0.000000 0.000000 0.000000
0.236572 0.000861 -0.462891 7.066748156e-41 0.000000 0.000000 0.000000
0.239746 0.000865 -0.464844 7.102621396e-41 0.000000 0.000000 0.000000
0.242432 0.000866 -0.465820 7.102621396e-41 0.000000 0.000000 0.000000
0.245117 0.000868 -0.466797 7.138494637e-41 0.000000 0.000000 0.000000
0.178345 -0.001328 -0.474365 7.246114359e-41 0.000000 0.000000 0.000000
0.180542 -0.001328 -0.474365 7.246114359e-41 0.000000 0.000000 0.000000
0.182373 -0.001327 -0.473389 7.210241118e-41 0.000000 0.000000 0.000000
0.183838 -0.001321 -0.471436 7.210241118e-41 0.000000 0.000000 0.000000
0.185669 -0.001318 -0.470703 7.174367878e-41 0.000000 0.000000 0.000000
0.187134 -0.001312 -0.468750 7.138494637e-41 0.000000 0.000000 0.000000
0.188477 -0.001307 -0.466797 7.138494637e-41 0.000000 0.000000 0.000000
0.189941 -0.001302 -0.464844 7.102621396e-41 0.000000 0.000000 0.000000
0.191284 -0.001297 -0.462891 7.066748156e-41 0.000000 0.000000 0.000000
0.192627 -0.001291 -0.460938 7.030874915e-41 0.000000 0.000000 0.000000
0.193970 -0.001286 -0.459229 6.995001674e-41 0.000000 0.000000 0.000000
0.195679 -0.001284 -0.458252 6.995001674e-41 0.000000 0.000000 0.000000
0.197388 -0.001281 -0.457275 6.959128434e-41 0.000000 0.000000 0.000000
0.199219 -0.001278 -0.456299 6.959128434e-41 0.000000 0.000000 0.000000
0.201294 -0.001278 -0.456299 6.959128434e-41 0.000000 0.000000 0.000000
0.203003 -0.001275 -0.455322 6.959128434e-41 0.000000 0.000000 0.000000
0.205078 -0.001275 -0.455322 6.959128434e-41 0.000000 0.000000 0.000000
0.207275 -0.001275 -0.455322 6.959128434e-41 0.000000 0.000000 0.000000
0.209351 -0.001275 -0.455322 6.959128434e-41 0.000000 0.000000 0.000000
0.211426 -0.001275 -0.455322 6.959128434e-41 0.000000 0.000000 0.000000
0.213623 -0.001275 -0.455322 6.959128434e-41 0.000000 0.000000 0.000000
0.216187 -0.001278 -0.456299 6.959128434e-41 0.000000 0.000000 0.000000
0.218262 -0.001278 -0.456299 6.959128434e-41 0.000000 0.000000 0.000000
0.220947 -0.001281 -0.457275 6.959128434e-41 0.000000 0.000000 0.000000
0.223511 -0.001284 -0.458252 6.995001674e-41 0.000000 0.000000 0.000000
0.226074 -0.001286 -0.459229 6.995001674e-41 0.000000 0.000000 0.000000
0.228760 -0.001288 -0.459961 7.030874915e-41 0.000000 0.000000 0.000000
0.231812 -0.001294 -0.461914 7.066748156e-41 0.000000 0.000000 0.000000
0.234497 -0.001297 -0.462891 7.066748156e-41 0.000000 0.000000 0.000000
0.237549 -0.001302 -0.464844 7.102621396e-41 0.000000 0.000000 0.000000
0.240234 -0.001305 -0.465820 7.102621396e-41 0.000000 0.000000 0.000000
0.242920 -0.001307 -0.466797 7.138494637e-41 0.000000 0.000000 0.000000
0.179077 -0.003555 -0.476318 7.281987600e-41 0.000000 0.000000 0.000000
0.180908 -0.003548 -0.475342 7.246114359e-41 0.000000 0.000000 0.000000
0.182739 -0.003540 -0.474365 7.246114359e-41 0.000000 0.000000 0.000000
0.184570 -0.003532 -0.473389 7.210241118e-41 0.000000 0.000000 0.000000
0.186035 -0.003519 -0.471436 7.210241118e-41 0.000000 0.000000 0.000000
0.187866 -0.003511 -0.470703 7.174367878e-41 0.000000 0.000000 0.000000
0.189331 -0.003498 -0.468750 7.138494637e-41 0.000000 0.000000 0.000000
0.190674 -0.003483 -0.466797 7.138494637e-41 0.000000 0.000000 0.000000
0.192139 -0.003469 -0.464844 7.102621396e-41 0.000000 0.000000 0.000000
0.193481 -0.003454 -0.462891 7.066748156e-41 0.000000 0.000000 0.000000
0.195190 -0.003447 -0.461914 7.066748156e-41 0.000000 0.000000 0.000000
0.196533 -0.003433 -0.459961 7.030874915e-41 0.000000 0.000000 0.000000
0.198242 -0.003426 -0.459229 6.995001674e-41 0.000000 0.000000 0.000000
0.199951 -0.003418 -0.458252 6.995001674e-41 0.000000 0.000000 0.000000
0.202148 -0.003418 -0.458252 6.995001674e-41 0.000000 0.000000 0.000000
0.203857 -0.003412 -0.457275 6.959128434e-41 0.000000 0.000000 0.000000
0.205933 -0.003412 -0.457275 6.959128434e-41 0.000000 0.000000 0.000000
0.208130 -0.003412 -0.457275 6.959128434e-41 0.000000 0.000000 0.000000
0.210205 -0.003412 -0.457275 6.959128434e-41 0.000000 0.000000 0.000000
0.212402 -0.003412 -0.457275 6.959128434e-41 0.000000 0.000000 0.000000
0.214478 -0.003412 -0.457275 6.959128434e-41 0.000000 0.000000 0.000000
0.216675 -0.003412 -0.457275 6.959128434e-41 0.000000 0.000000 0.000000
0.219238 -0.003418 -0.458252 6.995001674e-41 0.000000 0.000000 0.000000
0.221802 -0.003426 -0.459229 6.995001674e-41 0.000000 0.000000 0.000000
0.223999 -0.003426 -0.459229 6.995001674e-41 0.000000 0.000000 0.000000
0.227051 -0.003441 -0.460938 7.030874915e-41 0.000000 0.000000 0.000000
0.229614 -0.003447 -0.461914 7.066748156e-41 0.000000 0.000000 0.000000
0.232300 -0.003454 -0.462891 7.066748156e-41 0.000000 0.000000 0.000000
0.235474 -0.003469 -0.464844 7.102621396e-41 0.000000 0.000000 0.000000
0.238037 -0.003475 -0.465820 7.102621396e-41 0.000000 0.000000 0.000000
0.240723 -0.003483 -0.466797 7.138494637e-41 0.000000 0.000000 0.000000
0.243408 -0.003490 -0.467773 7.138494637e-41 0.000000 0.000000 0.000000
0.179443 -0.005787 -0.477295 7.281987600e-41 0.000000 0.000000 0.000000
0.181641 -0.005787 -0.477295 7.281987600e-41 0.000000 0.000000 0.000000
0.183472 -0.005775 -0.476318 7.281987600e-41 0.000000 0.000000 0.000000
0.185303 -0.005764 -0.475342 7.246114359e-41 0.000000 0.000000 0.000000
0.186768 -0.005741 -0.473389 7.210241118e-41 0.000000 0.000000 0.000000
0.188232 -0.005718 -0.471436 7.210241118e-41 0.000000 0.000000 0.000000
0.190063 -0.005703 -0.470703 7.174367878e-41 0.000000 0.000000 0.000000
0.191528 -0.005680 -0.468750 7.138494637e-41 0.000000 0.000000 0.000000
0.192871 -0.005657 -0.466797 7.138494637e-41 0.000000 0.000000 0.000000
0.194214 -0.005634 -0.464844 7.102621396e-41 0.000000 0.000000 0.000000
0.196045 -0.005623 -0.463867 7.066748156e-41 0.000000 0.000000 0.000000
0.197388 -0.005600 -0.461914 7.066748156e-41 0.000000 0.000000 0.000000
